ply
format ascii 1.0
comment VCGLIB generated
element vertex 1649
property float x
property float y
property float z
element face 0
property list uchar int vertex_indices
end_header
-1.41504 1.55469 -0.637695 
-1.40625 1.55371 -0.6372069 
-1.39453 1.54883 -0.635254 
-1.38184 1.54297 -0.632812 
-1.37402 1.54199 -0.6323239 
-1.34863 1.52148 -0.624023 
-1.33887 1.51855 -0.6230469 
-1.32812 1.51465 -0.6215819 
-1.31934 1.5127 -0.6206049 
-1.31055 1.51172 -0.6201169 
-1.30566 1.51367 -0.6210939 
-1.30176 1.51758 -0.622559 
-1.29883 1.52246 -0.624512 
-1.2959 1.52734 -0.626465 
-1.29297 1.53223 -0.628906 
-1.28906 1.53613 -0.6303709 
-1.28418 1.53906 -0.6318359 
-1.27832 1.54199 -0.6323239 
-1.27148 1.54199 -0.6323239 
-1.26367 1.54199 -0.6323239 
-1.25684 1.54199 -0.6323239 
-1.25 1.54297 -0.632812 
-1.24512 1.5459 -0.6342769 
-1.24121 1.5498 -0.6357419 
-1.2373 1.55469 -0.637695 
-1.23535 1.56055 -0.640137 
-1.2334 1.56738 -0.6430659 
-1.23047 1.57324 -0.6455079 
-1.22852 1.58105 -0.6484379 
-1.22461 1.58594 -0.6503909 
-1.2207 1.59082 -0.6528319 
-1.21582 1.59375 -0.653809 
-1.20898 1.59473 -0.6542969 
-1.20117 1.59473 -0.6542969 
-1.19434 1.59473 -0.6542969 
-1.1875 1.59668 -0.655273 
-1.18359 1.60156 -0.6572269 
-1.18164 1.6084 -0.660156 
-1.18066 1.61816 -0.6635739 
-1.17969 1.62793 -0.6679689 
-1.18066 1.63867 -0.6723629 
-1.18066 1.65039 -0.6767579 
-1.18066 1.66113 -0.6816409 
-1.17969 1.6709 -0.6855469 
-1.17871 1.68066 -0.6899409 
-1.17676 1.69043 -0.693359 
-1.17578 1.7002 -0.697754 
-1.1748 1.70996 -0.7016599 
-1.17285 1.71875 -0.7055659 
-1.1709 1.72852 -0.708984 
-1.16797 1.73633 -0.7124019 
-1.16406 1.74219 -0.7148439 
-1.15723 1.74414 -0.71582 
-1.14844 1.74414 -0.71582 
-1.13672 1.73926 -0.713379 
-1.12207 1.72949 -0.709473 
-1.10449 1.71484 -0.7036129 
-1.08496 1.69629 -0.695801 
-1.06348 1.6748 -0.687012 
-1.04102 1.65332 -0.678223 
-1.02148 1.63379 -0.6704099 
-1.00391 1.61816 -0.6635739 
-0.988281 1.60449 -0.6582029 
-0.9755859 1.59668 -0.655273 
-0.9643549 1.59082 -0.6528319 
-0.95459 1.58691 -0.650879 
-0.9448239 1.58301 -0.6494139 
-0.9360349 1.58105 -0.6484379 
-0.9272459 1.5791 -0.6479489 
-0.918945 1.57812 -0.6474609 
-0.9111329 1.57715 -0.646973 
-0.9028319 1.5752 -0.646484 
-0.8955079 1.5752 -0.646484 
-0.887695 1.57422 -0.6459959 
-0.8793949 1.57324 -0.6455079 
-0.87207 1.57324 -0.6455079 
-0.8637699 1.57227 -0.6450199 
-0.8559569 1.57129 -0.6450199 
-0.8481449 1.57031 -0.644531 
-0.8393549 1.56836 -0.6435549 
-0.831543 1.56738 -0.6430659 
-0.8232419 1.56641 -0.6425779 
-0.8154299 1.56543 -0.6425779 
-0.8081049 1.56543 -0.6425779 
-0.800781 1.56543 -0.6425779 
-0.7934569 1.56543 -0.6425779 
-0.7856449 1.56543 -0.6425779 
-0.77832 1.56543 -0.6425779 
-0.7709959 1.56543 -0.6425779 
-0.763184 1.56445 -0.64209 
-0.7548829 1.56348 -0.6416019 
-0.7465819 1.56152 -0.6406249 
-0.737793 1.55859 -0.639648 
-0.729004 1.55566 -0.638184 
-0.720215 1.55273 -0.6372069 
-0.7109379 1.54883 -0.635254 
-0.702637 1.54688 -0.6347659 
-0.6943359 1.54492 -0.6337889 
-0.687012 1.54395 -0.633301 
-0.6791989 1.54297 -0.632812 
-0.6718749 1.54297 -0.632812 
-0.664551 1.54297 -0.632812 
-0.6572269 1.54297 -0.632812 
-0.6499019 1.54297 -0.632812 
-0.64209 1.54199 -0.6323239 
-0.6347659 1.54199 -0.6323239 
-0.6269529 1.54102 -0.6318359 
-0.6191409 1.53906 -0.6318359 
-0.6118159 1.53906 -0.6318359 
-0.6044919 1.53906 -0.6318359 
-0.597168 1.53906 -0.6318359 
-0.5898439 1.53906 -0.6318359 
-0.5825199 1.53809 -0.631348 
-0.5747069 1.53711 -0.630859 
-0.5668949 1.53613 -0.6303709 
-0.5590819 1.53418 -0.6293949 
-0.5512699 1.5332 -0.6293949 
-0.5434569 1.53125 -0.628418 
-0.535156 1.5293 -0.6274409 
-0.5278319 1.52832 -0.6269529 
-0.5200199 1.52734 -0.626465 
-0.512695 1.52734 -0.626465 
-0.5053709 1.52734 -0.626465 
-0.498779 1.52832 -0.6269529 
-0.491943 1.5293 -0.6274409 
-0.484863 1.53027 -0.6279299 
-0.478271 1.53223 -0.628906 
-0.471191 1.5332 -0.6293949 
-0.464355 1.53418 -0.6293949 
-0.457031 1.53418 -0.6293949 
-0.449463 1.5332 -0.6293949 
-0.441895 1.53223 -0.628906 
-0.434082 1.53027 -0.6279299 
-0.42627 1.52832 -0.6269529 
-0.418701 1.52734 -0.626465 
-0.410889 1.52539 -0.6259769 
-0.403076 1.52344 -0.6249999 
-0.395508 1.52246 -0.624512 
-0.388184 1.52148 -0.624023 
-0.380371 1.51953 -0.6235349 
-0.373047 1.51855 -0.6230469 
-0.365479 1.51758 -0.622559 
-0.358154 1.5166 -0.62207 
-0.350586 1.51562 -0.6215819 
-0.343262 1.51465 -0.6215819 
-0.335693 1.51367 -0.6210939 
-0.328369 1.5127 -0.6206049 
-0.321045 1.51172 -0.6201169 
-0.313721 1.51074 -0.619629 
-0.306396 1.51074 -0.619629 
-0.298828 1.50879 -0.6186519 
-0.291504 1.50781 -0.6186519 
-0.28418 1.50684 -0.6181639 
-0.276611 1.50391 -0.6171879 
-0.269043 1.50195 -0.6162109 
-0.261963 1.50098 -0.6162109 
-0.254395 1.49902 -0.615234 
-0.247192 1.49805 -0.6147459 
-0.239868 1.49707 -0.6142579 
-0.232422 1.49512 -0.613281 
-0.22522 1.49414 -0.613281 
-0.217773 1.49219 -0.6123049 
-0.210449 1.49023 -0.6113279 
-0.203125 1.48828 -0.61084 
-0.195679 1.48535 -0.6093749 
-0.188232 1.48242 -0.608398 
-0.180664 1.47852 -0.606445 
-0.17334 1.47559 -0.6054689 
-0.166138 1.47363 -0.6044919 
-0.158813 1.4707 -0.6030269 
-0.151611 1.46777 -0.6025389 
-0.144409 1.46582 -0.601562 
-0.137207 1.46387 -0.6005859 
-0.130127 1.46191 -0.600098 
-0.123108 1.46094 -0.599609 
-0.116028 1.45898 -0.5986329 
-0.109009 1.45801 -0.5981449 
-0.102051 1.45703 -0.597656 
-0.0949707 1.45508 -0.597168 
-0.0880127 1.4541 -0.5966799 
-0.08105469 1.45312 -0.5961909 
-0.07409669 1.45215 -0.5957029 
-0.06713869 1.45117 -0.595215 
-0.0602417 1.4502 -0.595215 
-0.0533142 1.44922 -0.5947269 
-0.0464172 1.44824 -0.5942379 
-0.0394897 1.44629 -0.593262 
-0.0325928 1.44531 -0.592773 
-0.0257263 1.44434 -0.5922849 
-0.0188599 1.44336 -0.5922849 
-0.012001 1.44238 -0.5917969 
-0.00515366 1.44238 -0.5917969 
0.00169182 1.44238 -0.5917969 
0.008537289 1.44336 -0.5922849 
0.0154114 1.44531 -0.592773 
0.0223083 1.44727 -0.5937499 
0.0292358 1.4502 -0.595215 
0.0361938 1.45312 -0.5961909 
0.0432434 1.45801 -0.5981449 
0.050354 1.46387 -0.6005859 
0.0575562 1.4707 -0.6030269 
0.06481929 1.47754 -0.6059569 
0.07214359 1.4834 -0.608398 
0.0794678 1.48828 -0.61084 
0.08666989 1.49121 -0.6118159 
0.09387209 1.49316 -0.612793 
0.101135 1.49512 -0.613281 
0.108276 1.49609 -0.6137699 
0.11554 1.49805 -0.6147459 
0.122742 1.49902 -0.615234 
0.129883 1.5 -0.615723 
0.137085 1.5 -0.615723 
0.144287 1.50098 -0.6162109 
0.151367 1.50098 -0.6162109 
0.158569 1.50098 -0.6162109 
0.165649 1.50098 -0.6162109 
0.172729 1.50098 -0.6162109 
0.179932 1.50098 -0.6162109 
0.187012 1.50098 -0.6162109 
0.19397 1.5 -0.615723 
0.201172 1.5 -0.615723 
0.20813 1.49902 -0.615234 
0.215088 1.49805 -0.6147459 
0.222046 1.49707 -0.6142579 
0.228882 1.49512 -0.613281 
0.23584 1.49414 -0.613281 
0.242554 1.49219 -0.6123049 
0.249512 1.49121 -0.6118159 
0.256592 1.49121 -0.6118159 
0.263428 1.49023 -0.6113279 
0.270508 1.49023 -0.6113279 
0.277344 1.48926 -0.61084 
0.284424 1.48926 -0.61084 
0.29126 1.48828 -0.61084 
0.298096 1.48633 -0.6098629 
0.304932 1.48535 -0.6093749 
0.311523 1.4834 -0.608398 
0.318359 1.48242 -0.608398 
0.324951 1.48047 -0.6074219 
0.331787 1.47949 -0.606934 
0.338623 1.47949 -0.606934 
0.345459 1.47852 -0.606445 
0.352539 1.47852 -0.606445 
0.359619 1.47852 -0.606445 
0.366455 1.47852 -0.606445 
0.373779 1.47949 -0.606934 
0.380859 1.47949 -0.606934 
0.387939 1.47949 -0.606934 
0.395264 1.48047 -0.6074219 
0.401855 1.47949 -0.606934 
0.408936 1.47949 -0.606934 
0.415771 1.47852 -0.606445 
0.422607 1.47852 -0.606445 
0.429443 1.47754 -0.6059569 
0.436035 1.47656 -0.6054689 
0.442871 1.47559 -0.6054689 
0.449951 1.47559 -0.6054689 
0.456543 1.47461 -0.6049799 
0.463135 1.47363 -0.6044919 
0.470215 1.47363 -0.6044919 
0.476807 1.47266 -0.604004 
0.483643 1.47168 -0.6035159 
0.48999 1.46973 -0.6030269 
0.496582 1.46777 -0.6025389 
0.5024409 1.46582 -0.601562 
0.5087889 1.46387 -0.6005859 
0.515137 1.46191 -0.600098 
0.521973 1.46094 -0.599609 
0.52832 1.45996 -0.5991209 
0.5341799 1.45703 -0.597656 
0.283447 0.68457 -0.280762 
0.286133 0.683594 -0.280518 
0.289551 0.683594 -0.280518 
0.292725 0.683594 -0.280518 
0.296387 0.68457 -0.280762 
0.299561 0.68457 -0.280762 
0.302979 0.68457 -0.280762 
0.306641 0.685547 -0.28125 
0.309814 0.685547 -0.28125 
0.312988 0.685547 -0.28125 
0.316406 0.685547 -0.28125 
0.31958 0.685547 -0.28125 
0.322754 0.685547 -0.28125 
0.32666 0.686523 -0.281738 
0.329834 0.686523 -0.281738 
0.333008 0.686523 -0.281738 
0.336914 0.6875 -0.281982 
0.340088 0.6875 -0.281982 
0.343262 0.6875 -0.281982 
0.34668 0.6875 -0.281982 
0.349854 0.6875 -0.281982 
0.352539 0.686523 -0.281738 
0.355957 0.686523 -0.281738 
0.312744 0.582031 -0.238892 
0.314941 0.581055 -0.238403 
0.317383 0.580078 -0.238037 
0.31958 0.579102 -0.237671 
0.321533 0.578125 -0.237183 
0.324463 0.578125 -0.237183 
0.32666 0.577148 -0.236816 
0.329834 0.578125 -0.237183 
0.33252 0.578125 -0.237183 
0.336426 0.580078 -0.238037 
0.341064 0.583008 -0.239258 
0.346191 0.586914 -0.240967 
0.352539 0.593262 -0.243408 
0.360107 0.601074 -0.246704 
0.369141 0.611328 -0.250732 
0.377441 0.620117 -0.254395 
0.385254 0.628418 -0.257812 
0.392822 0.635254 -0.260742 
0.398193 0.63916 -0.262207 
0.403076 0.64209 -0.263428 
0.40625 0.64209 -0.263428 
0.408691 0.641113 -0.263184 
0.4104 0.63916 -0.262207 
0.410889 0.635254 -0.260742 
0.410645 0.630371 -0.258545 
0.409668 0.624023 -0.256104 
0.408447 0.618164 -0.253662 
0.407471 0.612305 -0.251221 
0.406982 0.606934 -0.249146 
0.406494 0.602051 -0.24707 
0.406006 0.597168 -0.244995 
0.406006 0.593262 -0.243408 
0.405518 0.587891 -0.241333 
0.406006 0.584961 -0.240112 
0.406006 0.581055 -0.238403 
0.406738 0.578125 -0.237183 
0.407227 0.575195 -0.235962 
0.407959 0.571777 -0.234741 
0.40918 0.569824 -0.233887 
0.409668 0.566895 -0.232666 
0.410889 0.564941 -0.231812 
0.410645 0.561035 -0.230225 
0.412598 0.560059 -0.229736 
0.406982 0.548828 -0.22522 
0.379639 0.508789 -0.20874 
0.378418 0.503906 -0.206665 
0.380127 0.50293 -0.206299 
0.380127 0.499756 -0.205078 
0.380127 0.496826 -0.203857 
0.380127 0.493896 -0.202637 
0.379395 0.489746 -0.200928 
0.378662 0.48584 -0.199341 
0.378662 0.482666 -0.19812 
0.377686 0.47876 -0.196411 
0.377686 0.47583 -0.19519 
0.377441 0.472656 -0.19397 
0.377197 0.469727 -0.192749 
0.376953 0.466797 -0.191528 
0.377686 0.4646 -0.190674 
0.378174 0.462646 -0.189819 
0.378662 0.460693 -0.188965 
0.378418 0.457764 -0.187744 
0.378906 0.455566 -0.187012 
0.379395 0.453613 -0.186157 
0.379883 0.45166 -0.185303 
0.379395 0.44873 -0.184082 
0.379883 0.446533 -0.183228 
0.380371 0.44458 -0.182373 
0.380615 0.442627 -0.181641 
0.381836 0.44165 -0.181152 
0.382324 0.439697 -0.18042 
0.382568 0.4375 -0.179565 
0.383057 0.435547 -0.178711 
0.384033 0.43457 -0.178345 
0.384277 0.432617 -0.17749 
0.384766 0.430664 -0.176636 
0.38501 0.428467 -0.175781 
0.38501 0.426514 -0.175049 
0.385254 0.424561 -0.174194 
0.386475 0.423584 -0.173828 
0.386475 0.421631 -0.172974 
0.386719 0.419434 -0.172119 
0.387695 0.418457 -0.171753 
0.387939 0.416504 -0.170898 
0.388916 0.415527 -0.170532 
0.389893 0.414551 -0.170044 
0.391113 0.413574 -0.169678 
0.391113 0.411377 -0.168823 
0.39209 0.4104 -0.168457 
0.393066 0.409424 -0.167969 
0.394043 0.408447 -0.167603 
0.39502 0.407471 -0.167236 
0.395996 0.406494 -0.166748 
0.397949 0.406494 -0.166748 
0.398926 0.405518 -0.166382 
0.400635 0.405518 -0.166382 
0.401611 0.404541 -0.165894 
-1.39453 1.54102 -0.6391599 
-1.38379 1.53613 -0.637695 
-1.37207 1.53125 -0.6357419 
-1.36035 1.52637 -0.633301 
-1.35156 1.52441 -0.632812 
-1.3418 1.52246 -0.6318359 
-1.33105 1.51855 -0.6303709 
-1.32129 1.51562 -0.628906 
-1.31348 1.51465 -0.628418 
-1.30762 1.51562 -0.628906 
-1.30273 1.51855 -0.6303709 
-1.2998 1.52344 -0.6323239 
-1.29688 1.52832 -0.6342769 
-1.29395 1.5332 -0.6362299 
-1.28906 1.53613 -0.637695 
-1.28418 1.53906 -0.6391599 
-1.27832 1.54199 -0.639648 
-1.27148 1.54297 -0.640137 
-1.26465 1.54297 -0.640137 
-1.25781 1.54395 -0.6406249 
-1.25195 1.5459 -0.6416019 
-1.24707 1.54883 -0.6425779 
-1.24316 1.55273 -0.644531 
-1.24023 1.55762 -0.646484 
-1.23633 1.5625 -0.6484379 
-1.2334 1.56836 -0.650879 
-1.23145 1.57422 -0.65332 
-1.22852 1.58105 -0.6562499 
-1.22461 1.58594 -0.6582029 
-1.2207 1.58984 -0.659668 
-1.21484 1.59277 -0.6611329 
-1.20703 1.59277 -0.6611329 
-1.2002 1.59375 -0.6616209 
-1.19336 1.59375 -0.6616209 
-1.1875 1.59668 -0.662598 
-1.18359 1.60156 -0.664551 
-1.18164 1.6084 -0.6674799 
-1.18066 1.61816 -0.671387 
-1.18066 1.62891 -0.6762699 
-1.18066 1.63965 -0.6806639 
-1.18066 1.65137 -0.685059 
-1.18066 1.66113 -0.6894529 
-1.17969 1.6709 -0.693359 
-1.17871 1.68066 -0.697754 
-1.17773 1.69141 -0.7016599 
-1.17578 1.7002 -0.7055659 
-1.1748 1.70996 -0.7099609 
-1.17285 1.71875 -0.713379 
-1.1709 1.72852 -0.7172849 
-1.16699 1.73535 -0.720215 
-1.16309 1.74121 -0.722656 
-1.15625 1.74316 -0.7236329 
-1.14746 1.74219 -0.7231449 
-1.13574 1.7373 -0.7211909 
-1.12109 1.72754 -0.7167969 
-1.10254 1.71191 -0.7104489 
-1.08301 1.69336 -0.702637 
-1.06152 1.67188 -0.693848 
-1.04004 1.65137 -0.685059 
-1.02051 1.63184 -0.6772459 
-1.00293 1.61621 -0.6704099 
-0.988281 1.60449 -0.6660159 
-0.975098 1.5957 -0.662109 
-0.9643549 1.59082 -0.660156 
-0.9541019 1.58594 -0.6582029 
-0.9448239 1.58301 -0.6567379 
-0.9360349 1.58105 -0.6562499 
-0.9272459 1.5791 -0.655273 
-0.9184569 1.57715 -0.6542969 
-0.9106449 1.5752 -0.653809 
-0.9023439 1.57422 -0.65332 
-0.894531 1.57324 -0.65332 
-0.8867189 1.57324 -0.65332 
-0.878906 1.57227 -0.6528319 
-0.8710939 1.57129 -0.6523439 
-0.862793 1.57031 -0.6518549 
-0.8549799 1.56934 -0.6513669 
-0.8466799 1.56836 -0.650879 
-0.8388669 1.56738 -0.6503909 
-0.8310549 1.56641 -0.6503909 
-0.822754 1.56543 -0.6499019 
-0.8154299 1.56543 -0.6499019 
-0.8081049 1.56543 -0.6499019 
-0.800781 1.56543 -0.6499019 
-0.7934569 1.56543 -0.6499019 
-0.7856449 1.56543 -0.6499019 
-0.77832 1.56543 -0.6499019 
-0.7709959 1.56543 -0.6499019 
-0.7636719 1.56543 -0.6499019 
-0.7553709 1.56445 -0.6494139 
-0.74707 1.5625 -0.6484379 
-0.738281 1.55957 -0.6474609 
-0.7294919 1.55664 -0.6459959 
-0.7207029 1.55371 -0.6450199 
-0.7119139 1.55078 -0.6435549 
-0.7031249 1.54785 -0.64209 
-0.6948239 1.5459 -0.6416019 
-0.687012 1.54492 -0.6411129 
-0.6796879 1.54492 -0.6411129 
-0.6723629 1.54492 -0.6411129 
-0.6650389 1.54492 -0.6411129 
-0.6572269 1.54395 -0.6406249 
-0.6499019 1.54395 -0.6406249 
-0.6425779 1.54297 -0.640137 
-0.6347659 1.54199 -0.639648 
-0.6274409 1.54199 -0.639648 
-0.619629 1.54102 -0.6391599 
-0.6118159 1.53906 -0.6391599 
-0.6044919 1.53906 -0.6391599 
-0.597168 1.53906 -0.6391599 
-0.5893549 1.53809 -0.6386719 
-0.5825199 1.53809 -0.6386719 
-0.5747069 1.53711 -0.638184 
-0.566406 1.53516 -0.6372069 
-0.5585939 1.5332 -0.6362299 
-0.550781 1.53125 -0.6357419 
-0.5424799 1.5293 -0.6347659 
-0.535156 1.52832 -0.6342769 
-0.5268549 1.52637 -0.633301 
-0.519531 1.52637 -0.633301 
-0.5122069 1.52539 -0.633301 
-0.5048829 1.52539 -0.633301 
-0.498047 1.52637 -0.633301 
-0.491211 1.52734 -0.6337889 
-0.484375 1.52832 -0.6342769 
-0.477539 1.53027 -0.635254 
-0.470703 1.53125 -0.6357419 
-0.463623 1.53223 -0.6362299 
-0.456787 1.5332 -0.6362299 
-0.449219 1.53223 -0.6362299 
-0.44165 1.53125 -0.6357419 
-0.434082 1.53027 -0.635254 
-0.42627 1.52832 -0.6342769 
-0.418701 1.52734 -0.6337889 
-0.410889 1.52539 -0.633301 
-0.403076 1.52344 -0.6323239 
-0.395508 1.52246 -0.6318359 
-0.388184 1.52148 -0.631348 
-0.380615 1.52051 -0.630859 
-0.373291 1.51953 -0.630859 
-0.365479 1.51758 -0.6298829 
-0.358154 1.5166 -0.6293949 
-0.350586 1.51562 -0.628906 
-0.343262 1.51465 -0.628418 
-0.335693 1.51367 -0.6279299 
-0.328369 1.5127 -0.6279299 
-0.321045 1.51172 -0.6274409 
-0.313721 1.51074 -0.6269529 
-0.306396 1.51074 -0.6269529 
-0.299072 1.50977 -0.626465 
-0.291748 1.50879 -0.6259769 
-0.28418 1.50684 -0.6249999 
-0.276855 1.50586 -0.6249999 
-0.269287 1.50293 -0.624023 
-0.261963 1.50195 -0.6235349 
-0.254639 1.50098 -0.6230469 
-0.247437 1.5 -0.622559 
-0.240234 1.49902 -0.62207 
-0.23291 1.49805 -0.62207 
-0.225464 1.49609 -0.6210939 
-0.218262 1.49512 -0.6206049 
-0.210938 1.49316 -0.619629 
-0.203369 1.49023 -0.6186519 
-0.195923 1.4873 -0.6171879 
-0.188477 1.48438 -0.6162109 
-0.18103 1.48145 -0.6147459 
-0.173706 1.47852 -0.6137699 
-0.16626 1.47559 -0.6123049 
-0.159058 1.47363 -0.6113279 
-0.151855 1.47168 -0.61084 
-0.144653 1.46973 -0.6098629 
-0.137573 1.46777 -0.6093749 
-0.130493 1.46582 -0.608398 
-0.123474 1.46484 -0.6079099 
-0.116333 1.46289 -0.6074219 
-0.109314 1.46191 -0.606934 
-0.102295 1.46094 -0.606445 
-0.09533689 1.45996 -0.6059569 
-0.08831789 1.45898 -0.6054689 
-0.08135989 1.45801 -0.6049799 
-0.07434079 1.45703 -0.6049799 
-0.06738279 1.45605 -0.6044919 
-0.0604553 1.45508 -0.604004 
-0.0534668 1.45312 -0.6030269 
-0.0465393 1.45215 -0.6025389 
-0.0396118 1.45117 -0.602051 
-0.0326843 1.44922 -0.601562 
-0.0257874 1.44824 -0.6010739 
-0.0189056 1.44727 -0.6005859 
-0.0120316 1.44629 -0.600098 
-0.00516891 1.44629 -0.600098 
0.00169754 1.44727 -0.6005859 
0.008567809 1.44824 -0.6010739 
0.0154572 1.44922 -0.601562 
0.0223846 1.45215 -0.6025389 
0.0293274 1.45508 -0.604004 
0.0363159 1.45801 -0.6049799 
0.043396 1.46289 -0.6074219 
0.05053709 1.46973 -0.6098629 
0.0577393 1.47559 -0.6123049 
0.06500239 1.48145 -0.6147459 
0.0722656 1.48633 -0.6166989 
0.07952879 1.49023 -0.6186519 
0.08673099 1.49219 -0.6191409 
0.09393309 1.49414 -0.6201169 
0.101135 1.49512 -0.6206049 
0.108337 1.49707 -0.6215819 
0.11554 1.49805 -0.62207 
0.122742 1.49902 -0.62207 
0.129883 1.5 -0.622559 
0.137085 1.50098 -0.6230469 
0.144287 1.50098 -0.6230469 
0.151367 1.50098 -0.6230469 
0.158569 1.50098 -0.6230469 
0.165649 1.50098 -0.6230469 
0.172607 1.5 -0.622559 
0.17981 1.5 -0.622559 
0.186768 1.49902 -0.62207 
0.193726 1.49805 -0.62207 
0.200928 1.49805 -0.62207 
0.207886 1.49707 -0.6215819 
0.214844 1.49609 -0.6210939 
0.22168 1.49414 -0.6201169 
0.228516 1.49316 -0.619629 
0.235352 1.49121 -0.6191409 
0.24231 1.49023 -0.6186519 
0.249146 1.48926 -0.6181639 
0.256104 1.48828 -0.617676 
0.263184 1.48828 -0.617676 
0.27002 1.4873 -0.6171879 
0.2771 1.4873 -0.6171879 
0.28418 1.4873 -0.6171879 
0.291016 1.48633 -0.6166989 
0.297852 1.48535 -0.6162109 
0.304443 1.4834 -0.615723 
0.311279 1.48242 -0.615234 
0.317871 1.48047 -0.6142579 
0.324707 1.47949 -0.6137699 
0.331543 1.47852 -0.6137699 
0.338379 1.47754 -0.613281 
0.345215 1.47754 -0.613281 
0.352295 1.47754 -0.613281 
0.359375 1.47754 -0.613281 
0.366211 1.47754 -0.613281 
0.373535 1.47852 -0.6137699 
0.380859 1.47949 -0.6137699 
0.387939 1.47949 -0.6137699 
0.39502 1.47949 -0.6137699 
0.401855 1.47949 -0.6137699 
0.408936 1.47949 -0.6137699 
0.415771 1.47852 -0.6137699 
0.422363 1.47754 -0.613281 
0.429199 1.47656 -0.612793 
0.435791 1.47559 -0.6123049 
0.442627 1.47461 -0.6118159 
0.449463 1.47461 -0.6118159 
0.456299 1.47363 -0.6113279 
0.463135 1.47363 -0.6113279 
0.469971 1.47266 -0.61084 
0.476807 1.47266 -0.61084 
0.483643 1.47168 -0.61084 
0.490234 1.4707 -0.6103519 
0.496826 1.46973 -0.6098629 
0.5029299 1.4668 -0.608887 
0.5097659 1.46582 -0.608398 
0.5161129 1.46387 -0.6079099 
0.5224609 1.46289 -0.6074219 
0.5292969 1.46191 -0.606934 
0.5361329 1.46289 -0.6074219 
0.282959 0.683594 -0.283691 
0.286133 0.683594 -0.283691 
0.289551 0.683594 -0.283691 
0.292725 0.683594 -0.283691 
0.295898 0.683594 -0.283691 
0.299072 0.683594 -0.283691 
0.302979 0.68457 -0.283936 
0.306152 0.68457 -0.283936 
0.309814 0.685547 -0.284424 
0.312988 0.685547 -0.284424 
0.316406 0.685547 -0.284424 
0.31958 0.685547 -0.284424 
0.322754 0.685547 -0.284424 
0.326172 0.685547 -0.284424 
0.329834 0.686523 -0.284912 
0.333008 0.686523 -0.284912 
0.336914 0.6875 -0.2854 
0.340088 0.6875 -0.2854 
0.343262 0.6875 -0.2854 
0.34668 0.6875 -0.2854 
0.349854 0.6875 -0.2854 
0.352539 0.686523 -0.284912 
0.355957 0.686523 -0.284912 
0.312256 0.581055 -0.241211 
0.314941 0.581055 -0.241211 
0.317383 0.580078 -0.240723 
0.31958 0.579102 -0.240356 
0.321533 0.578125 -0.23999 
0.32373 0.577148 -0.239502 
0.32666 0.577148 -0.239502 
0.329346 0.577148 -0.239502 
0.33252 0.578125 -0.23999 
0.335938 0.579102 -0.240356 
0.340576 0.582031 -0.241577 
0.345703 0.585938 -0.243286 
0.352051 0.592285 -0.245728 
0.359619 0.600098 -0.249146 
0.368408 0.610352 -0.253174 
0.376953 0.619141 -0.25708 
0.384766 0.627441 -0.260254 
0.39209 0.634277 -0.263184 
0.397705 0.638184 -0.264893 
0.401855 0.640137 -0.265625 
0.405518 0.641113 -0.266113 
0.407959 0.640137 -0.265625 
0.40918 0.637207 -0.264404 
0.409424 0.633301 -0.262695 
0.40918 0.628418 -0.260742 
0.408936 0.623047 -0.258545 
0.407959 0.617188 -0.256104 
0.406738 0.611328 -0.253662 
0.40625 0.605957 -0.251465 
0.405273 0.600098 -0.249146 
0.405273 0.596191 -0.247437 
0.404785 0.591309 -0.245361 
0.404785 0.586914 -0.243652 
0.404785 0.583008 -0.242065 
0.404785 0.579102 -0.240356 
0.405273 0.576172 -0.239136 
0.406006 0.572754 -0.237915 
0.406494 0.569824 -0.236572 
0.407715 0.567871 -0.23584 
0.408203 0.564941 -0.234497 
0.409424 0.562988 -0.233643 
0.409912 0.560059 -0.232422 
0.408203 0.553711 -0.22998 
0.408691 0.550781 -0.22876 
0.39624 0.530762 -0.220337 
0.37915 0.504883 -0.209473 
0.382324 0.505859 -0.209961 
0.382324 0.50293 -0.20874 
0.382568 0.499756 -0.207397 
0.381836 0.49585 -0.205811 
0.381104 0.491699 -0.204102 
0.381104 0.48877 -0.202881 
0.380127 0.484863 -0.201172 
0.379395 0.480713 -0.199585 
0.378418 0.476807 -0.197876 
0.378174 0.473633 -0.196655 
0.378174 0.470703 -0.195312 
0.37793 0.467773 -0.194092 
0.378418 0.465576 -0.193237 
0.378174 0.462646 -0.192017 
0.378662 0.460693 -0.191162 
0.379395 0.45874 -0.190308 
0.378906 0.455566 -0.189087 
0.379395 0.453613 -0.188232 
0.379883 0.45166 -0.1875 
0.380371 0.449707 -0.186646 
0.380859 0.44751 -0.185791 
0.381104 0.445557 -0.184937 
0.381592 0.443604 -0.184082 
0.381836 0.44165 -0.183228 
0.382324 0.439697 -0.182495 
0.383545 0.438477 -0.182007 
0.383789 0.436523 -0.181152 
0.384033 0.43457 -0.18042 
0.384277 0.432617 -0.179565 
0.384766 0.430664 -0.178711 
0.38501 0.428467 -0.177856 
0.38501 0.426514 -0.177002 
0.385254 0.424561 -0.176147 
0.386475 0.423584 -0.175781 
0.386475 0.421631 -0.174927 
0.386719 0.419434 -0.174072 
0.387695 0.418457 -0.173706 
0.387939 0.416504 -0.172852 
0.388916 0.415527 -0.172485 
0.389893 0.414551 -0.171997 
0.390137 0.412598 -0.171143 
0.391113 0.411377 -0.170776 
0.39209 0.4104 -0.17041 
0.393066 0.409424 -0.169922 
0.394043 0.408447 -0.169556 
0.39502 0.407471 -0.169067 
0.395996 0.406494 -0.168701 
0.396973 0.405518 -0.168335 
0.398926 0.405518 -0.168335 
0.399658 0.404541 -0.167847 
0.401611 0.404541 -0.167847 
-1.39844 1.55273 -0.6518549 
-1.36621 1.52539 -0.640137 
-1.35742 1.52344 -0.639648 
-1.35156 1.52539 -0.640137 
-1.3457 1.52637 -0.6406249 
-1.33496 1.52246 -0.6391599 
-1.3252 1.51953 -0.637695 
-1.31641 1.51758 -0.6372069 
-1.30957 1.51855 -0.6372069 
-1.30469 1.52051 -0.638184 
-1.30078 1.52441 -0.640137 
-1.29688 1.52832 -0.6416019 
-1.29297 1.53223 -0.6430659 
-1.28906 1.53613 -0.6450199 
-1.28418 1.53906 -0.646484 
-1.27734 1.54102 -0.646484 
-1.27148 1.54297 -0.6474609 
-1.26562 1.54395 -0.6479489 
-1.25977 1.5459 -0.648926 
-1.25391 1.54785 -0.6494139 
-1.25 1.55176 -0.6513669 
-1.24609 1.55566 -0.6528319 
-1.24219 1.56055 -0.655273 
-1.23926 1.56543 -0.6572269 
-1.23535 1.57031 -0.6591799 
-1.23145 1.5752 -0.6616209 
-1.22949 1.58203 -0.664062 
-1.22461 1.58594 -0.6655269 
-1.2207 1.58984 -0.6674799 
-1.21387 1.5918 -0.6679689 
-1.20703 1.5918 -0.6679689 
-1.2002 1.59277 -0.6684569 
-1.19336 1.59375 -0.668945 
-1.1875 1.5957 -0.6699219 
-1.18359 1.60156 -0.6723629 
-1.18164 1.6084 -0.675293 
-1.18066 1.61914 -0.6796879 
-1.18164 1.62988 -0.6840819 
-1.18164 1.64062 -0.688965 
-1.18164 1.65234 -0.693359 
-1.18066 1.66211 -0.697754 
-1.18066 1.67188 -0.7016599 
-1.17969 1.68164 -0.7060549 
-1.17773 1.69141 -0.7099609 
-1.17676 1.70117 -0.7143549 
-1.1748 1.70996 -0.717773 
-1.17285 1.71875 -0.7216799 
-1.1709 1.72852 -0.7255859 
-1.16699 1.73438 -0.7280269 
-1.16211 1.73926 -0.7299799 
-1.15527 1.74219 -0.731445 
-1.14551 1.74023 -0.7304689 
-1.13477 1.73535 -0.7285159 
-1.11914 1.72461 -0.7236329 
-1.10059 1.70898 -0.7172849 
-1.08105 1.69043 -0.709473 
-1.05957 1.66895 -0.700684 
-1.03809 1.64844 -0.6918949 
-1.01855 1.62988 -0.6840819 
-1.00195 1.61523 -0.677734 
-0.987793 1.60352 -0.67334 
-0.975098 1.5957 -0.6699219 
-0.9638669 1.58984 -0.6674799 
-0.9541019 1.58594 -0.6655269 
-0.9448239 1.58301 -0.664551 
-0.9360349 1.58105 -0.6635739 
-0.9272459 1.5791 -0.662598 
-0.918945 1.57812 -0.662109 
-0.9106449 1.5752 -0.6616209 
-0.9023439 1.57422 -0.6611329 
-0.894531 1.57324 -0.6606449 
-0.8862299 1.57227 -0.660156 
-0.878418 1.57129 -0.659668 
-0.8701169 1.57031 -0.6591799 
-0.8623049 1.56934 -0.6586909 
-0.8544919 1.56836 -0.6586909 
-0.8461909 1.56738 -0.6582029 
-0.838379 1.56641 -0.657715 
-0.8305659 1.56543 -0.6572269 
-0.822754 1.56543 -0.6572269 
-0.8154299 1.56543 -0.6572269 
-0.8081049 1.56543 -0.6572269 
-0.800781 1.56543 -0.6572269 
-0.7934569 1.56543 -0.6572269 
-0.7856449 1.56543 -0.6572269 
-0.77832 1.56543 -0.6572269 
-0.7709959 1.56543 -0.6572269 
-0.7636719 1.56543 -0.6572269 
-0.7553709 1.56445 -0.6567379 
-0.74707 1.5625 -0.655762 
-0.7387699 1.56055 -0.655273 
-0.7299799 1.55762 -0.653809 
-0.7211909 1.55469 -0.6523439 
-0.7124019 1.55176 -0.6513669 
-0.7036129 1.54883 -0.6499019 
-0.695312 1.54688 -0.6494139 
-0.6874999 1.5459 -0.648926 
-0.680176 1.5459 -0.648926 
-0.6723629 1.54492 -0.6484379 
-0.6650389 1.54492 -0.6484379 
-0.657715 1.54492 -0.6484379 
-0.6503909 1.54492 -0.6484379 
-0.6425779 1.54395 -0.6479489 
-0.635254 1.54297 -0.6474609 
-0.6274409 1.54199 -0.646973 
-0.619629 1.54102 -0.646484 
-0.6118159 1.53906 -0.646484 
-0.6044919 1.53906 -0.646484 
-0.5966799 1.53809 -0.6459959 
-0.5893549 1.53809 -0.6459959 
-0.582031 1.53711 -0.6455079 
-0.5742189 1.53613 -0.6450199 
-0.566406 1.53418 -0.644043 
-0.5581049 1.53223 -0.6430659 
-0.550293 1.53027 -0.6425779 
-0.5419919 1.52832 -0.6416019 
-0.5341799 1.52637 -0.6406249 
-0.5268549 1.52539 -0.640137 
-0.519043 1.52441 -0.640137 
-0.5117189 1.52441 -0.640137 
-0.5043949 1.52441 -0.640137 
-0.497803 1.52539 -0.640137 
-0.490967 1.52637 -0.6406249 
-0.483887 1.52734 -0.6411129 
-0.477295 1.5293 -0.64209 
-0.470459 1.53027 -0.6425779 
-0.463379 1.53125 -0.6430659 
-0.456055 1.53125 -0.6430659 
-0.448975 1.53125 -0.6430659 
-0.441406 1.53027 -0.6425779 
-0.433838 1.5293 -0.64209 
-0.42627 1.52832 -0.6416019 
-0.418457 1.52637 -0.6406249 
-0.410645 1.52441 -0.640137 
-0.403076 1.52344 -0.639648 
-0.395264 1.52148 -0.6386719 
-0.387939 1.52051 -0.638184 
-0.380371 1.51953 -0.637695 
-0.373047 1.51855 -0.6372069 
-0.365479 1.51758 -0.6372069 
-0.358154 1.5166 -0.6367189 
-0.350586 1.51562 -0.6362299 
-0.343262 1.51465 -0.6357419 
-0.335693 1.51367 -0.635254 
-0.328369 1.5127 -0.6347659 
-0.321045 1.51172 -0.6342769 
-0.313721 1.51074 -0.6342769 
-0.306396 1.51074 -0.6342769 
-0.299072 1.50977 -0.6337889 
-0.291748 1.50879 -0.633301 
-0.28418 1.50684 -0.6323239 
-0.276855 1.50586 -0.6318359 
-0.269531 1.50391 -0.631348 
-0.262207 1.50293 -0.630859 
-0.254883 1.50195 -0.630859 
-0.247681 1.50098 -0.6303709 
-0.240356 1.5 -0.6298829 
-0.233032 1.49902 -0.6293949 
-0.22583 1.49805 -0.628906 
-0.218506 1.49707 -0.628418 
-0.211182 1.49512 -0.6279299 
-0.203735 1.49316 -0.6269529 
-0.196289 1.49023 -0.6254879 
-0.188721 1.48633 -0.624023 
-0.181274 1.4834 -0.622559 
-0.17395 1.48047 -0.6215819 
-0.166504 1.47754 -0.6201169 
-0.159302 1.47559 -0.6191409 
-0.1521 1.47363 -0.6186519 
-0.14502 1.47266 -0.6181639 
-0.137939 1.47168 -0.617676 
-0.130737 1.46973 -0.6166989 
-0.123718 1.46777 -0.6162109 
-0.116638 1.4668 -0.615723 
-0.109619 1.46582 -0.615723 
-0.1026 1.46484 -0.615234 
-0.09558109 1.46387 -0.6147459 
-0.08856199 1.46289 -0.6142579 
-0.08154299 1.46191 -0.6137699 
-0.07458499 1.46094 -0.613281 
-0.0675659 1.45996 -0.612793 
-0.0605774 1.45801 -0.6123049 
-0.0536194 1.45703 -0.6118159 
-0.0466614 1.45605 -0.6113279 
-0.0397339 1.45508 -0.61084 
-0.0327759 1.45312 -0.6098629 
-0.0258636 1.45215 -0.6093749 
-0.0189514 1.45117 -0.6093749 
-0.0120621 1.4502 -0.608887 
-0.005180359 1.4502 -0.608887 
0.00170231 1.45117 -0.6093749 
0.008590699 1.45215 -0.6093749 
0.0155106 1.4541 -0.6103519 
0.0224457 1.45605 -0.6113279 
0.0294189 1.45898 -0.6123049 
0.036438 1.46289 -0.6142579 
0.0434875 1.4668 -0.615723 
0.05065919 1.47363 -0.6186519 
0.05786129 1.47852 -0.6206049 
0.06512449 1.48438 -0.6230469 
0.0723877 1.48828 -0.6249999 
0.07965089 1.49219 -0.626465 
0.08685299 1.49414 -0.6274409 
0.0939941 1.49512 -0.6279299 
0.101196 1.49609 -0.6279299 
0.108337 1.49707 -0.628418 
0.11554 1.49805 -0.628906 
0.122742 1.49902 -0.6293949 
0.129883 1.5 -0.6298829 
0.137085 1.50098 -0.6303709 
0.144287 1.50098 -0.6303709 
0.151489 1.50195 -0.630859 
0.158569 1.50098 -0.6303709 
0.165649 1.50098 -0.6303709 
0.172607 1.5 -0.6298829 
0.179688 1.49902 -0.6293949 
0.186646 1.49805 -0.628906 
0.193604 1.49707 -0.628418 
0.200562 1.49609 -0.6279299 
0.20752 1.49512 -0.6279299 
0.214355 1.49316 -0.6269529 
0.221191 1.49121 -0.6259769 
0.228149 1.49023 -0.6254879 
0.234863 1.48828 -0.6249999 
0.241821 1.4873 -0.624512 
0.248657 1.48633 -0.624023 
0.255371 1.48535 -0.6235349 
0.262451 1.48535 -0.6235349 
0.269287 1.48438 -0.6230469 
0.276367 1.48438 -0.6230469 
0.283447 1.48438 -0.6230469 
0.290283 1.4834 -0.622559 
0.297119 1.48242 -0.62207 
0.303955 1.48145 -0.6215819 
0.310791 1.48047 -0.6215819 
0.317383 1.47852 -0.6206049 
0.324219 1.47754 -0.6201169 
0.331055 1.47656 -0.619629 
0.337891 1.47559 -0.6191409 
0.344727 1.47559 -0.6191409 
0.351807 1.47559 -0.6191409 
0.359131 1.47656 -0.619629 
0.366211 1.47754 -0.6201169 
0.373535 1.47852 -0.6206049 
0.380615 1.47852 -0.6206049 
0.387939 1.47949 -0.6210939 
0.39502 1.47949 -0.6210939 
0.401855 1.47949 -0.6210939 
0.408936 1.47949 -0.6210939 
0.415771 1.47852 -0.6206049 
0.422363 1.47754 -0.6201169 
0.428955 1.47559 -0.6191409 
0.435547 1.47461 -0.6186519 
0.442139 1.47363 -0.6186519 
0.448975 1.47266 -0.6181639 
0.456055 1.47266 -0.6181639 
0.462891 1.47266 -0.6181639 
0.469482 1.47168 -0.617676 
0.476562 1.47168 -0.617676 
0.483154 1.4707 -0.6171879 
0.490234 1.4707 -0.6171879 
0.496826 1.46973 -0.6166989 
0.503418 1.46777 -0.6162109 
0.5097659 1.46582 -0.615723 
0.5161129 1.46484 -0.615234 
0.5229489 1.46387 -0.6147459 
0.5292969 1.46289 -0.6142579 
0.5366209 1.46387 -0.6147459 
0.543945 1.46484 -0.615234 
0.285889 0.682617 -0.286377 
0.289062 0.682617 -0.286377 
0.292236 0.682617 -0.286377 
0.295898 0.683594 -0.286865 
0.299072 0.683594 -0.286865 
0.302979 0.68457 -0.287354 
0.306152 0.68457 -0.287354 
0.309814 0.685547 -0.287842 
0.312988 0.685547 -0.287842 
0.316406 0.685547 -0.287842 
0.31958 0.685547 -0.287842 
0.322754 0.685547 -0.287842 
0.326172 0.685547 -0.287842 
0.329834 0.686523 -0.288086 
0.333008 0.686523 -0.288086 
0.336914 0.6875 -0.288574 
0.340088 0.6875 -0.288574 
0.343262 0.6875 -0.288574 
0.34668 0.6875 -0.288574 
0.349365 0.686523 -0.288086 
0.352539 0.686523 -0.288086 
0.355957 0.686523 -0.288086 
0.359131 0.686523 -0.288086 
0.312256 0.581055 -0.244019 
0.314941 0.581055 -0.244019 
0.317383 0.580078 -0.24353 
0.31958 0.579102 -0.243164 
0.321533 0.578125 -0.242676 
0.32373 0.577148 -0.24231 
0.325928 0.576172 -0.241821 
0.328857 0.576172 -0.241821 
0.332031 0.577148 -0.24231 
0.335938 0.579102 -0.243164 
0.339844 0.581055 -0.244019 
0.345703 0.585938 -0.246094 
0.352051 0.592285 -0.248535 
0.359619 0.600098 -0.251953 
0.36792 0.609375 -0.255615 
0.376221 0.618164 -0.259521 
0.384766 0.627441 -0.263184 
0.391357 0.633301 -0.265869 
0.396973 0.637207 -0.267578 
0.401367 0.63916 -0.268311 
0.404297 0.63916 -0.268311 
0.406738 0.638184 -0.267822 
0.408447 0.63623 -0.26709 
0.408936 0.632324 -0.265381 
0.408691 0.627441 -0.263184 
0.407715 0.621094 -0.260742 
0.407227 0.616211 -0.258545 
0.40625 0.610352 -0.256104 
0.405762 0.60498 -0.253906 
0.404541 0.599121 -0.251465 
0.404541 0.595215 -0.249878 
0.404053 0.589844 -0.247803 
0.404053 0.585938 -0.246094 
0.404053 0.582031 -0.244385 
0.404053 0.578125 -0.242676 
0.403809 0.574219 -0.240967 
0.404541 0.570801 -0.239746 
0.405029 0.567871 -0.238525 
0.40625 0.565918 -0.237671 
0.406738 0.562988 -0.236328 
0.407227 0.560059 -0.235107 
0.407715 0.557129 -0.233887 
0.407471 0.552734 -0.232178 
0.408691 0.550781 -0.231323 
0.407471 0.545898 -0.229248 
0.393555 0.523926 -0.219971 
0.385254 0.509766 -0.213989 
0.385498 0.506836 -0.212769 
0.385498 0.503906 -0.211548 
0.384766 0.499756 -0.209839 
0.384033 0.49585 -0.20813 
0.383301 0.491699 -0.206421 
0.381836 0.486816 -0.204346 
0.380859 0.482666 -0.202637 
0.379883 0.47876 -0.200928 
0.37915 0.474854 -0.199341 
0.378906 0.47168 -0.197998 
0.378662 0.46875 -0.196777 
0.379395 0.466797 -0.195923 
0.37915 0.463623 -0.194702 
0.379639 0.46167 -0.193848 
0.379395 0.45874 -0.192505 
0.379883 0.456543 -0.19165 
0.380371 0.45459 -0.190796 
0.380859 0.452637 -0.190063 
0.380371 0.449707 -0.188721 
0.380859 0.44751 -0.187866 
0.381104 0.445557 -0.187012 
0.382324 0.44458 -0.186646 
0.382812 0.442627 -0.185791 
0.383057 0.440674 -0.184937 
0.383545 0.438477 -0.184082 
0.383789 0.436523 -0.183228 
0.384033 0.43457 -0.182373 
0.384277 0.432617 -0.181641 
0.384766 0.430664 -0.180786 
0.385742 0.429443 -0.180298 
0.385986 0.42749 -0.179443 
0.38623 0.425537 -0.178589 
0.386475 0.423584 -0.177734 
0.386475 0.421631 -0.177002 
0.386719 0.419434 -0.176147 
0.387695 0.418457 -0.175659 
0.387939 0.416504 -0.174805 
0.388916 0.415527 -0.174438 
0.389893 0.414551 -0.17395 
0.391113 0.413574 -0.173584 
0.391113 0.411377 -0.172729 
0.39209 0.4104 -0.172363 
0.393066 0.409424 -0.171875 
0.394043 0.408447 -0.171509 
0.39502 0.407471 -0.171021 
0.395996 0.406494 -0.170654 
0.396973 0.405518 -0.170166 
0.398926 0.405518 -0.170166 
0.399658 0.404541 -0.1698 
0.401611 0.404541 -0.1698 
-1.34766 1.49609 -0.635254 
-1.37598 1.53516 -0.6518549 
-1.35547 1.52148 -0.6459959 
-1.35352 1.52734 -0.6484379 
-1.34961 1.53125 -0.6503909 
-1.33887 1.52734 -0.6484379 
-1.32812 1.52344 -0.646973 
-1.31934 1.52148 -0.6459959 
-1.31152 1.52051 -0.6455079 
-1.30566 1.52246 -0.646484 
-1.30176 1.52539 -0.6474609 
-1.29688 1.52832 -0.648926 
-1.29297 1.53223 -0.6503909 
-1.28809 1.53516 -0.6518549 
-1.2832 1.53809 -0.65332 
-1.27734 1.54102 -0.653809 
-1.27148 1.54297 -0.6547849 
-1.2666 1.54492 -0.655762 
-1.26074 1.54688 -0.6567379 
-1.25586 1.5498 -0.657715 
-1.25195 1.55371 -0.659668 
-1.24805 1.55859 -0.6616209 
-1.24414 1.5625 -0.6635739 
-1.24023 1.56738 -0.6655269 
-1.23633 1.57129 -0.6669919 
-1.23242 1.57715 -0.669434 
-1.22949 1.58203 -0.671387 
-1.22461 1.58594 -0.67334 
-1.21973 1.58887 -0.6743159 
-1.21387 1.59082 -0.675293 
-1.20703 1.5918 -0.675781 
-1.19922 1.5918 -0.675781 
-1.19336 1.59375 -0.6767579 
-1.1875 1.59668 -0.677734 
-1.18359 1.60156 -0.680176 
-1.18262 1.60938 -0.6835939 
-1.18066 1.61914 -0.687012 
-1.18164 1.62988 -0.6918949 
-1.18164 1.64062 -0.6967769 
-1.18164 1.65234 -0.7011719 
-1.18164 1.66309 -0.7060549 
-1.18066 1.67285 -0.7104489 
-1.17969 1.68262 -0.7143549 
-1.17871 1.69238 -0.718262 
-1.17676 1.70117 -0.722168 
-1.1748 1.70996 -0.7260739 
-1.17285 1.71875 -0.7299799 
-1.16895 1.72656 -0.7329099 
-1.16602 1.7334 -0.73584 
-1.16016 1.7373 -0.7373049 
-1.15332 1.73926 -0.738281 
-1.14355 1.7373 -0.7373049 
-1.13184 1.73145 -0.7348629 
-1.11621 1.7207 -0.7304689 
-1.09863 1.70508 -0.7241209 
-1.07715 1.68555 -0.7153319 
-1.05664 1.66504 -0.707031 
-1.03613 1.64453 -0.6982419 
-1.01758 1.62695 -0.6904299 
-1.00098 1.61328 -0.68457 
-0.9868159 1.60254 -0.6806639 
-0.974609 1.59473 -0.6772459 
-0.9638669 1.58984 -0.6748049 
-0.9541019 1.58594 -0.67334 
-0.9448239 1.58301 -0.6718749 
-0.9360349 1.58105 -0.670898 
-0.9272459 1.5791 -0.6704099 
-0.918945 1.57812 -0.6699219 
-0.9106449 1.5752 -0.668945 
-0.9023439 1.57422 -0.6684569 
-0.894531 1.57324 -0.6679689 
-0.8862299 1.57227 -0.6674799 
-0.8779299 1.57031 -0.6669919 
-0.869629 1.56934 -0.666504 
-0.8618159 1.56836 -0.6660159 
-0.854004 1.56738 -0.6655269 
-0.8457029 1.56641 -0.6650389 
-0.838379 1.56641 -0.6650389 
-0.8305659 1.56543 -0.664551 
-0.822754 1.56543 -0.664551 
-0.8154299 1.56543 -0.664551 
-0.8081049 1.56543 -0.664551 
-0.800781 1.56543 -0.664551 
-0.7934569 1.56543 -0.664551 
-0.7856449 1.56543 -0.664551 
-0.77832 1.56543 -0.664551 
-0.7709959 1.56543 -0.664551 
-0.763184 1.56445 -0.664062 
-0.7548829 1.56348 -0.6635739 
-0.74707 1.5625 -0.6635739 
-0.738281 1.55957 -0.662109 
-0.7299799 1.55762 -0.6611329 
-0.7211909 1.55469 -0.660156 
-0.7124019 1.55176 -0.6586909 
-0.7036129 1.54883 -0.6572269 
-0.695801 1.54785 -0.6567379 
-0.6874999 1.5459 -0.6562499 
-0.680176 1.5459 -0.6562499 
-0.6723629 1.54492 -0.655762 
-0.6650389 1.54492 -0.655762 
-0.657715 1.54492 -0.655762 
-0.6503909 1.54492 -0.655762 
-0.6425779 1.54395 -0.655273 
-0.635254 1.54297 -0.6547849 
-0.6279299 1.54297 -0.6547849 
-0.6201169 1.54199 -0.6542969 
-0.6123049 1.54102 -0.653809 
-0.6044919 1.53906 -0.653809 
-0.5966799 1.53809 -0.65332 
-0.5893549 1.53711 -0.6528319 
-0.581543 1.53613 -0.6523439 
-0.5737299 1.53516 -0.6518549 
-0.565918 1.5332 -0.650879 
-0.5576169 1.53125 -0.6503909 
-0.5498049 1.5293 -0.6494139 
-0.5419919 1.52734 -0.6484379 
-0.5336909 1.52539 -0.6474609 
-0.5263669 1.52441 -0.646973 
-0.5185549 1.52344 -0.646973 
-0.5117189 1.52344 -0.646973 
-0.5043949 1.52344 -0.646973 
-0.497559 1.52441 -0.646973 
-0.490479 1.52539 -0.6474609 
-0.483643 1.52637 -0.6479489 
-0.477051 1.52832 -0.648926 
-0.469971 1.5293 -0.6494139 
-0.463135 1.53027 -0.6499019 
-0.455811 1.53027 -0.6499019 
-0.448486 1.53027 -0.6499019 
-0.440918 1.5293 -0.6494139 
-0.433594 1.52832 -0.648926 
-0.426025 1.52734 -0.6484379 
-0.418213 1.52539 -0.6474609 
-0.4104 1.52344 -0.646973 
-0.402832 1.52246 -0.646484 
-0.395264 1.52148 -0.6459959 
-0.387939 1.52051 -0.6455079 
-0.380371 1.51953 -0.6450199 
-0.373047 1.51855 -0.644531 
-0.365479 1.51758 -0.644043 
-0.358154 1.5166 -0.6435549 
-0.350586 1.51562 -0.6435549 
-0.343262 1.51465 -0.6430659 
-0.335693 1.51367 -0.6425779 
-0.328369 1.5127 -0.64209 
-0.321045 1.51172 -0.6416019 
-0.313721 1.51074 -0.6411129 
-0.306152 1.50977 -0.6406249 
-0.298828 1.50879 -0.640137 
-0.291504 1.50781 -0.640137 
-0.28418 1.50684 -0.639648 
-0.276855 1.50586 -0.6391599 
-0.269531 1.50391 -0.6386719 
-0.262207 1.50293 -0.638184 
-0.254883 1.50195 -0.637695 
-0.247681 1.50098 -0.6372069 
-0.240479 1.50098 -0.6372069 
-0.233276 1.5 -0.6367189 
-0.226074 1.5 -0.6367189 
-0.21875 1.49805 -0.6362299 
-0.211426 1.49707 -0.6357419 
-0.203979 1.49414 -0.6342769 
-0.196411 1.49121 -0.633301 
-0.188965 1.48828 -0.6318359 
-0.181519 1.48535 -0.6303709 
-0.174072 1.48242 -0.6293949 
-0.166748 1.47949 -0.6279299 
-0.159546 1.47754 -0.6269529 
-0.152344 1.47559 -0.626465 
-0.145142 1.47461 -0.6259769 
-0.138062 1.47363 -0.6254879 
-0.130981 1.47266 -0.6249999 
-0.123962 1.47168 -0.624512 
-0.116882 1.4707 -0.624023 
-0.109863 1.46973 -0.6235349 
-0.102783 1.46777 -0.6235349 
-0.09576419 1.4668 -0.6230469 
-0.08874509 1.46582 -0.622559 
-0.08172609 1.46484 -0.62207 
-0.07470699 1.46387 -0.6215819 
-0.06774899 1.46289 -0.6210939 
-0.0606995 1.46094 -0.6201169 
-0.0537415 1.45996 -0.6201169 
-0.0467529 1.45898 -0.619629 
-0.0397949 1.45703 -0.6186519 
-0.0328369 1.45605 -0.6181639 
-0.0259247 1.45508 -0.617676 
-0.0189972 1.4541 -0.6171879 
-0.0120926 1.45312 -0.6166989 
-0.0051918 1.45312 -0.6166989 
0.00170422 1.45312 -0.6166989 
0.008613589 1.45508 -0.617676 
0.0155411 1.45703 -0.6186519 
0.0224915 1.45898 -0.619629 
0.02948 1.46191 -0.6206049 
0.036499 1.46582 -0.622559 
0.0435791 1.4707 -0.624023 
0.0507507 1.47559 -0.626465 
0.05798339 1.48145 -0.628906 
0.06524659 1.48633 -0.630859 
0.07244869 1.49023 -0.632812 
0.07971189 1.49316 -0.6337889 
0.08691409 1.49512 -0.6347659 
0.09405519 1.49609 -0.635254 
0.101257 1.49707 -0.6357419 
0.108459 1.49805 -0.6362299 
0.115601 1.49902 -0.6367189 
0.122803 1.5 -0.6367189 
0.130005 1.50098 -0.6372069 
0.137207 1.50195 -0.637695 
0.144409 1.50195 -0.637695 
0.151489 1.50195 -0.637695 
0.158569 1.50195 -0.637695 
0.165771 1.50195 -0.637695 
0.172729 1.50098 -0.6372069 
0.179688 1.49902 -0.6367189 
0.186646 1.49805 -0.6362299 
0.193481 1.49609 -0.635254 
0.200439 1.49512 -0.6347659 
0.207275 1.49316 -0.6337889 
0.214111 1.49121 -0.633301 
0.220825 1.48926 -0.6323239 
0.227661 1.4873 -0.631348 
0.234497 1.48633 -0.630859 
0.241333 1.48438 -0.6303709 
0.248169 1.4834 -0.6298829 
0.254883 1.48242 -0.6293949 
0.261719 1.48145 -0.628906 
0.268799 1.48145 -0.628906 
0.275635 1.48047 -0.628418 
0.282715 1.48047 -0.628418 
0.289795 1.48047 -0.628418 
0.296631 1.47949 -0.6279299 
0.303467 1.47852 -0.6274409 
0.310303 1.47754 -0.6269529 
0.316895 1.47656 -0.6269529 
0.32373 1.47559 -0.626465 
0.330566 1.47461 -0.6259769 
0.337646 1.47461 -0.6259769 
0.344482 1.47461 -0.6259769 
0.351807 1.47559 -0.626465 
0.358887 1.47559 -0.626465 
0.365967 1.47656 -0.6269529 
0.373291 1.47754 -0.6269529 
0.380615 1.47852 -0.6274409 
0.387939 1.47949 -0.6279299 
0.39502 1.47949 -0.6279299 
0.401855 1.47949 -0.6279299 
0.408691 1.47852 -0.6274409 
0.415527 1.47754 -0.6269529 
0.422119 1.47656 -0.6269529 
0.428955 1.47559 -0.626465 
0.435303 1.47363 -0.6254879 
0.441895 1.47266 -0.6249999 
0.44873 1.47168 -0.624512 
0.455566 1.47168 -0.624512 
0.462646 1.47168 -0.624512 
0.469238 1.4707 -0.624023 
0.476318 1.4707 -0.624023 
0.48291 1.46973 -0.6235349 
0.48999 1.46973 -0.6235349 
0.496582 1.46777 -0.6235349 
0.5029299 1.4668 -0.6230469 
0.5097659 1.46582 -0.622559 
0.5161129 1.46484 -0.62207 
0.5229489 1.46387 -0.6215819 
0.5292969 1.46289 -0.6210939 
0.5361329 1.46289 -0.6210939 
0.5434569 1.46289 -0.6210939 
0.5493159 1.45996 -0.6201169 
0.555176 1.45801 -0.6191409 
0.560059 1.45312 -0.6166989 
0.5297849 1.2793 -0.5429689 
0.5322269 1.27051 -0.539551 
0.534668 1.2627 -0.5361329 
0.5380859 1.25684 -0.5332029 
0.5424799 1.25195 -0.5317379 
0.5473629 1.25 -0.530762 
0.550781 1.24414 -0.52832 
0.316895 0.686523 -0.291504 
0.31958 0.685547 -0.291016 
0.322754 0.685547 -0.291016 
0.326172 0.685547 -0.291016 
0.329834 0.686523 -0.291504 
0.333008 0.686523 -0.291504 
0.336914 0.6875 -0.291748 
0.340088 0.6875 -0.291748 
0.343262 0.6875 -0.291748 
0.346191 0.686523 -0.291504 
0.349365 0.686523 -0.291504 
0.352051 0.685547 -0.291016 
0.355469 0.685547 -0.291016 
0.358154 0.68457 -0.290527 
0.314453 0.580078 -0.246338 
0.317383 0.580078 -0.246338 
0.31958 0.579102 -0.24585 
0.321045 0.577148 -0.244995 
0.323242 0.576172 -0.244629 
0.325928 0.576172 -0.244629 
0.328857 0.576172 -0.244629 
0.331543 0.576172 -0.244629 
0.335449 0.578125 -0.245483 
0.339844 0.581055 -0.246704 
0.344971 0.584961 -0.248413 
0.351318 0.591309 -0.250977 
0.358887 0.599121 -0.254395 
0.367188 0.60791 -0.258057 
0.376221 0.618164 -0.262451 
0.384033 0.625977 -0.265869 
0.390869 0.632324 -0.268311 
0.39624 0.63623 -0.27002 
0.400635 0.638184 -0.270996 
0.403564 0.638184 -0.270996 
0.406006 0.637207 -0.270508 
0.407227 0.634277 -0.269287 
0.407471 0.630371 -0.267578 
0.407227 0.625 -0.265381 
0.406982 0.620117 -0.263184 
0.406494 0.615234 -0.26123 
0.405518 0.609375 -0.258545 
0.405029 0.604004 -0.256348 
0.403809 0.598145 -0.253906 
0.40332 0.593262 -0.251709 
0.40332 0.588867 -0.25 
0.402588 0.583984 -0.248047 
0.402588 0.580078 -0.246338 
0.402588 0.576172 -0.244629 
0.403076 0.572754 -0.243286 
0.403076 0.568848 -0.241577 
0.404297 0.566895 -0.240723 
0.404785 0.563965 -0.239502 
0.405273 0.561035 -0.238159 
0.405762 0.558105 -0.236938 
0.40625 0.554688 -0.235596 
0.406738 0.551758 -0.234375 
0.40625 0.547852 -0.232666 
0.405273 0.542969 -0.230469 
0.402588 0.535645 -0.227539 
0.388428 0.513672 -0.21814 
0.38916 0.511719 -0.217285 
0.389404 0.508789 -0.216064 
0.388672 0.504883 -0.214355 
0.387207 0.499756 -0.212158 
0.386475 0.49585 -0.210449 
0.384766 0.490723 -0.208374 
0.382568 0.484863 -0.205811 
0.381592 0.480713 -0.204102 
0.380615 0.476807 -0.202393 
0.379639 0.472656 -0.200684 
0.379395 0.469727 -0.199463 
0.380127 0.467773 -0.198608 
0.379883 0.4646 -0.197266 
0.380371 0.462646 -0.196411 
0.380127 0.459717 -0.19519 
0.380615 0.457764 -0.194336 
0.381104 0.455566 -0.193481 
0.380859 0.452637 -0.192139 
0.381104 0.450684 -0.191284 
0.381592 0.44873 -0.19043 
0.38208 0.446533 -0.189575 
0.382324 0.44458 -0.188721 
0.383789 0.443604 -0.188354 
0.384033 0.44165 -0.1875 
0.384277 0.439697 -0.186646 
0.384766 0.4375 -0.185791 
0.38501 0.435547 -0.184937 
0.385254 0.433594 -0.184082 
0.385498 0.431641 -0.183228 
0.385742 0.429443 -0.182373 
0.385986 0.42749 -0.181519 
0.38623 0.425537 -0.180664 
0.386475 0.423584 -0.17981 
0.386475 0.421631 -0.178955 
0.387695 0.42041 -0.178467 
0.387695 0.418457 -0.177612 
0.388916 0.41748 -0.177246 
0.388916 0.415527 -0.176392 
0.389893 0.414551 -0.176025 
0.391113 0.413574 -0.175537 
0.391113 0.411377 -0.174683 
0.39209 0.4104 -0.174316 
0.393066 0.409424 -0.173828 
0.394043 0.408447 -0.173462 
0.39502 0.407471 -0.172974 
0.395996 0.406494 -0.172607 
0.396973 0.405518 -0.172119 
0.397705 0.404541 -0.171753 
0.399658 0.404541 -0.171753 
0.401611 0.404541 -0.171753 
-1.34473 1.50098 -0.644531 
-1.34082 1.50391 -0.6459959 
-1.33496 1.50684 -0.646484 
-1.35742 1.53906 -0.6606449 
-1.34668 1.53516 -0.6591799 
-1.33398 1.5293 -0.6567379 
-1.32422 1.52637 -0.655273 
-1.31445 1.52441 -0.6542969 
-1.30762 1.52441 -0.6542969 
-1.30176 1.52637 -0.655273 
-1.29785 1.5293 -0.6567379 
-1.29297 1.53223 -0.657715 
-1.28809 1.53516 -0.6591799 
-1.28223 1.53711 -0.660156 
-1.27637 1.53906 -0.6606449 
-1.27148 1.54297 -0.662109 
-1.2666 1.54492 -0.6630859 
-1.26172 1.54785 -0.664551 
-1.25684 1.55176 -0.6660159 
-1.25293 1.55566 -0.6679689 
-1.24902 1.55957 -0.669434 
-1.24512 1.56445 -0.6718749 
-1.24121 1.56836 -0.67334 
-1.2373 1.57227 -0.675293 
-1.23242 1.57715 -0.6767579 
-1.22852 1.58105 -0.6787109 
-1.22363 1.58496 -0.680176 
-1.21875 1.58789 -0.6816409 
-1.21289 1.58984 -0.6826169 
-1.20605 1.59082 -0.6826169 
-1.19922 1.5918 -0.6831049 
-1.19336 1.59375 -0.6840819 
-1.1875 1.59668 -0.6855469 
-1.18359 1.60156 -0.6874999 
-1.18262 1.60938 -0.690918 
-1.18066 1.61914 -0.6948239 
-1.18164 1.62988 -0.6997069 
-1.18164 1.64062 -0.70459 
-1.18164 1.65234 -0.708984 
-1.18164 1.66309 -0.7138669 
-1.18066 1.67285 -0.718262 
-1.17969 1.68164 -0.722168 
-1.17871 1.69238 -0.726562 
-1.17578 1.7002 -0.7299799 
-1.17383 1.70898 -0.733887 
-1.17188 1.7168 -0.7373049 
-1.16797 1.72461 -0.740234 
-1.16406 1.73047 -0.742676 
-1.1582 1.73438 -0.744629 
-1.15039 1.73535 -0.7451169 
-1.1416 1.7334 -0.7441409 
-1.12793 1.72656 -0.7412109 
-1.1123 1.71387 -0.73584 
-1.09473 1.69922 -0.7294919 
-1.07422 1.67969 -0.7211909 
-1.05371 1.66016 -0.7124019 
-1.0332 1.63965 -0.7041019 
-1.01562 1.62402 -0.6972659 
-0.999512 1.61035 -0.691406 
-0.98584 1.60059 -0.687012 
-0.9741209 1.59375 -0.6840819 
-0.963379 1.58887 -0.682129 
-0.9541019 1.58594 -0.6806639 
-0.9448239 1.58301 -0.6791989 
-0.9360349 1.58105 -0.6787109 
-0.9272459 1.5791 -0.677734 
-0.918945 1.57812 -0.6772459 
-0.9106449 1.5752 -0.6762699 
-0.9023439 1.57422 -0.675781 
-0.894531 1.57324 -0.675293 
-0.8857419 1.57129 -0.6748049 
-0.8779299 1.57031 -0.6743159 
-0.8691409 1.56836 -0.67334 
-0.8613279 1.56738 -0.6728519 
-0.8530269 1.56641 -0.6723629 
-0.8457029 1.56641 -0.6723629 
-0.8378909 1.56543 -0.6718749 
-0.8305659 1.56543 -0.6718749 
-0.822754 1.56543 -0.6718749 
-0.8154299 1.56543 -0.6718749 
-0.8081049 1.56543 -0.6718749 
-0.800781 1.56543 -0.6718749 
-0.7934569 1.56543 -0.6718749 
-0.7856449 1.56543 -0.6718749 
-0.7778319 1.56445 -0.6718749 
-0.7705079 1.56445 -0.6718749 
-0.762695 1.56348 -0.671387 
-0.7543949 1.5625 -0.670898 
-0.7460939 1.56055 -0.6699219 
-0.737793 1.55859 -0.668945 
-0.729004 1.55566 -0.6679689 
-0.7207029 1.55371 -0.6669919 
