ply
format ascii 1.0
comment VCGLIB generated
element vertex 1633
property float x
property float y
property float z
element face 0
property list uchar int vertex_indices
end_header
0.376709 0.379395 -0.204224 
-0.233154 0.285889 -0.155396 
-0.230957 0.284912 -0.154785 
-0.228027 0.282959 -0.153687 
-0.22583 0.281982 -0.153198 
-0.224487 0.281982 -0.153198 
-0.223145 0.281982 -0.153198 
-0.221069 0.281006 -0.152588 
-0.219727 0.281006 -0.152588 
-0.218384 0.281006 -0.152588 
-0.217041 0.281006 -0.152588 
-0.215698 0.281006 -0.152588 
-0.214355 0.281006 -0.152588 
-0.213867 0.281982 -0.153198 
-0.212524 0.281982 -0.153198 
-0.211182 0.281982 -0.153198 
-0.209839 0.281982 -0.153198 
-0.208496 0.281982 -0.153198 
-0.207153 0.281982 -0.153198 
-0.205811 0.281982 -0.153198 
-0.204468 0.281982 -0.153198 
-0.203125 0.281982 -0.153198 
-0.201782 0.281982 -0.153198 
-0.200439 0.281982 -0.153198 
-0.199097 0.281982 -0.153198 
-0.197754 0.281982 -0.153198 
-0.196411 0.281982 -0.153198 
-0.195068 0.281982 -0.153198 
-0.193726 0.281982 -0.153198 
-0.192383 0.281982 -0.153198 
-0.19104 0.281982 -0.153198 
-0.189697 0.281982 -0.153198 
-0.188354 0.281982 -0.153198 
-0.187012 0.281982 -0.153198 
-0.185669 0.281982 -0.153198 
-0.184326 0.281982 -0.153198 
-0.182983 0.281982 -0.153198 
-0.181641 0.281982 -0.153198 
-0.180298 0.281982 -0.153198 
-0.178955 0.281982 -0.153198 
-0.177734 0.281982 -0.153198 
-0.176392 0.281982 -0.153198 
-0.175659 0.282959 -0.153687 
-0.173706 0.281982 -0.153198 
-0.172363 0.281982 -0.153198 
-0.171021 0.281982 -0.153198 
-0.169678 0.281982 -0.153198 
-0.167725 0.281006 -0.152588 
-0.166382 0.281006 -0.152588 
-0.165039 0.281006 -0.152588 
-0.163696 0.281006 -0.152588 
-0.162354 0.281006 -0.152588 
-0.161011 0.281006 -0.152588 
-0.159668 0.281006 -0.152588 
-0.158325 0.281006 -0.152588 
-0.156982 0.281006 -0.152588 
-0.15564 0.281006 -0.152588 
-0.154419 0.281006 -0.152588 
-0.153076 0.281006 -0.152588 
-0.151733 0.281006 -0.152588 
-0.150391 0.281006 -0.152588 
-0.149048 0.281006 -0.152588 
-0.147705 0.281006 -0.152588 
-0.146362 0.281006 -0.152588 
-0.14502 0.281006 -0.152588 
-0.143677 0.281006 -0.152588 
-0.142334 0.281006 -0.152588 
-0.140991 0.281006 -0.152588 
-0.139648 0.281006 -0.152588 
-0.138306 0.281006 -0.152588 
-0.7172849 1.53027 -0.831543 
-0.7075199 1.52539 -0.8286129 
-0.6972659 1.51855 -0.8247069 
-0.686523 1.51074 -0.820312 
-0.6748049 1.5 -0.8149409 
-0.662598 1.48926 -0.8090819 
-0.6503909 1.47754 -0.8022459 
-0.6386719 1.46582 -0.796387 
-0.6269529 1.45605 -0.7910159 
-0.6162109 1.44629 -0.7856449 
-0.6044919 1.43555 -0.7797849 
-0.5961909 1.43066 -0.7773439 
-0.588379 1.42871 -0.7763669 
-0.581543 1.42871 -0.7763669 
-0.575195 1.42969 -0.7768549 
-0.5693359 1.43164 -0.7778319 
-0.5629879 1.43457 -0.778809 
-0.557129 1.43652 -0.780273 
-0.5512699 1.43848 -0.7812499 
-0.543945 1.4375 -0.780762 
-0.537109 1.4375 -0.780762 
-0.530762 1.43848 -0.7812499 
-0.5249019 1.44141 -0.782715 
-0.5185549 1.44336 -0.7841799 
-0.512695 1.44531 -0.785156 
-0.506348 1.44727 -0.7861329 
-0.5 1.44824 -0.7866209 
-0.493164 1.44824 -0.7866209 
-0.486084 1.44727 -0.7861329 
-0.478516 1.44531 -0.785156 
-0.470947 1.44336 -0.7841799 
-0.463379 1.44141 -0.782715 
-0.456055 1.43945 -0.7817379 
-0.448242 1.43652 -0.780273 
-0.440674 1.43457 -0.778809 
-0.433105 1.43066 -0.7773439 
-0.425537 1.42871 -0.7763669 
-0.418213 1.42676 -0.7753909 
-0.410889 1.4248 -0.773926 
-0.403809 1.42383 -0.7734379 
-0.397217 1.42383 -0.7734379 
-0.390381 1.42383 -0.7734379 
-0.383545 1.42383 -0.7734379 
-0.377197 1.4248 -0.773926 
-0.370605 1.42578 -0.7749019 
-0.36377 1.42578 -0.7749019 
-0.357178 1.42676 -0.7753909 
-0.35083 1.42773 -0.775879 
-0.344482 1.42969 -0.7768549 
-0.338135 1.43164 -0.7778319 
-0.331787 1.43457 -0.778809 
-0.325684 1.4375 -0.780762 
-0.31958 1.44043 -0.7822269 
-0.313477 1.44434 -0.784668 
-0.307373 1.44727 -0.7861329 
-0.300781 1.44922 -0.787109 
-0.293945 1.44922 -0.787109 
-0.286865 1.44727 -0.7861329 
-0.278809 1.44238 -0.7832029 
-0.270752 1.43555 -0.7797849 
-0.262451 1.42676 -0.7753909 
-0.25415 1.41895 -0.7709959 
-0.246094 1.41113 -0.7666019 
-0.238403 1.40527 -0.763184 
-0.230957 1.40039 -0.760254 
-0.223633 1.39551 -0.758301 
-0.216553 1.39258 -0.7568359 
-0.209473 1.38965 -0.7548829 
-0.202637 1.3877 -0.753906 
-0.195679 1.38574 -0.7529299 
-0.188843 1.38379 -0.7519529 
-0.181885 1.38086 -0.7499999 
-0.175049 1.37891 -0.749023 
-0.168213 1.37598 -0.747559 
-0.161377 1.37402 -0.7460939 
-0.154541 1.37109 -0.744629 
-0.147827 1.36914 -0.7436519 
-0.140991 1.36621 -0.7421879 
-0.134277 1.36328 -0.740234 
-0.127563 1.36035 -0.7392579 
-0.120972 1.3584 -0.738281 
-0.114441 1.35742 -0.737793 
-0.107971 1.35742 -0.737793 
-0.101501 1.35742 -0.737793 
-0.0950928 1.35742 -0.737793 
-0.08874509 1.35938 -0.7387699 
-0.08239749 1.3623 -0.7397459 
-0.07604979 1.36426 -0.740723 
-0.06976319 1.36719 -0.742676 
-0.06341549 1.37109 -0.744629 
-0.0571289 1.375 -0.74707 
-0.0508118 1.38086 -0.7499999 
-0.0444641 1.38672 -0.753418 
-0.0380554 1.39355 -0.7573239 
-0.03164669 1.40332 -0.7622069 
-0.0251465 1.41211 -0.76709 
-0.0185699 1.4209 -0.771973 
-0.0118866 1.42871 -0.7763669 
-0.005126949 1.43555 -0.7797849 
0.00168896 1.44043 -0.7822269 
0.008544919 1.44434 -0.784668 
0.0154343 1.44727 -0.7861329 
0.0223541 1.4502 -0.787598 
0.0292664 1.45215 -0.789062 
0.0362244 1.45508 -0.7905269 
0.0432434 1.45801 -0.7919919 
0.0502625 1.46094 -0.793945 
0.0573425 1.46484 -0.795898 
0.06451419 1.4707 -0.7988279 
0.07177729 1.47656 -0.8017579 
0.07910159 1.48242 -0.805176 
0.08648679 1.48828 -0.8085939 
0.09387209 1.49316 -0.8110349 
0.101196 1.49609 -0.8129879 
0.108459 1.49805 -0.813965 
0.11554 1.49805 -0.813965 
0.122742 1.49902 -0.8144529 
0.129761 1.49805 -0.813965 
0.136841 1.49805 -0.813965 
0.143921 1.49805 -0.813965 
0.151001 1.49707 -0.8134769 
0.158081 1.49707 -0.8134769 
0.165039 1.49609 -0.8129879 
0.172119 1.49512 -0.8124999 
0.179199 1.49512 -0.8124999 
0.186157 1.49414 -0.811523 
0.193237 1.49414 -0.811523 
0.200317 1.49414 -0.811523 
0.207275 1.49316 -0.8110349 
0.214355 1.49316 -0.8110349 
0.221313 1.49219 -0.8105469 
0.228149 1.49023 -0.80957 
0.234985 1.48926 -0.8090819 
0.241821 1.4873 -0.8081049 
0.248535 1.48535 -0.8066409 
0.255127 1.4834 -0.8056639 
0.261963 1.48242 -0.805176 
0.268555 1.48047 -0.8041989 
0.275391 1.47949 -0.8037109 
0.282227 1.47852 -0.803223 
0.289307 1.47852 -0.803223 
0.296631 1.47949 -0.8037109 
0.303711 1.47949 -0.8037109 
0.310791 1.48047 -0.8041989 
0.318115 1.48145 -0.8046879 
0.325195 1.48145 -0.8046879 
0.332031 1.48145 -0.8046879 
0.339111 1.48145 -0.8046879 
0.345947 1.48047 -0.8041989 
0.352783 1.47949 -0.8037109 
0.359375 1.47754 -0.8022459 
0.365723 1.47559 -0.8012699 
0.372314 1.47363 -0.800293 
0.378906 1.47168 -0.7993159 
0.385254 1.46973 -0.79834 
0.391846 1.46777 -0.7973629 
0.398438 1.46582 -0.796387 
0.404785 1.46387 -0.7954099 
0.411377 1.46289 -0.7949219 
0.418213 1.46191 -0.794434 
0.424805 1.46094 -0.793945 
0.431396 1.45996 -0.7929689 
0.437988 1.45898 -0.7924799 
0.44458 1.45801 -0.7919919 
0.45166 1.45801 -0.7919919 
0.458252 1.45703 -0.791504 
0.465088 1.45703 -0.791504 
0.471924 1.45703 -0.791504 
0.479004 1.45703 -0.791504 
0.485596 1.45605 -0.7910159 
0.492432 1.45605 -0.7910159 
0.499023 1.45508 -0.7905269 
0.5053709 1.4541 -0.7900389 
0.5117189 1.45215 -0.789062 
0.5175779 1.4502 -0.787598 
0.5244139 1.44922 -0.787109 
0.530273 1.44727 -0.7861329 
0.537109 1.44629 -0.7856449 
0.5429689 1.44434 -0.784668 
0.5498049 1.44336 -0.7841799 
0.5566409 1.44336 -0.7841799 
0.5629879 1.44238 -0.7832029 
0.5693359 1.44141 -0.782715 
0.575684 1.44043 -0.7822269 
0.582031 1.43848 -0.7812499 
0.5874019 1.43555 -0.7797849 
0.592773 1.43066 -0.7773439 
0.5966799 1.4248 -0.773926 
0.600098 1.41699 -0.769531 
0.601562 1.40527 -0.763184 
0.602051 1.38965 -0.7548829 
0.599609 1.37012 -0.7441409 
0.5961909 1.34668 -0.731445 
0.5922849 1.32324 -0.7192379 
0.588379 1.30176 -0.707031 
0.586426 1.2832 -0.6972659 
0.586426 1.27051 -0.6899409 
0.5874019 1.25977 -0.6840819 
0.5898439 1.25195 -0.680176 
0.592773 1.24609 -0.6772459 
0.5966799 1.24121 -0.6743159 
0.6010739 1.23828 -0.6728519 
0.6059569 1.23633 -0.671387 
0.61084 1.23438 -0.6704099 
0.6162109 1.2334 -0.6699219 
0.321533 0.593262 -0.322266 
0.323242 0.591309 -0.321045 
0.324951 0.588867 -0.320068 
0.326172 0.585938 -0.318359 
0.327881 0.583984 -0.317139 
0.329346 0.582031 -0.316162 
0.331543 0.581055 -0.315674 
0.332031 0.577148 -0.313477 
0.33374 0.575195 -0.312256 
0.334717 0.571777 -0.310791 
0.33667 0.570801 -0.310059 
0.338867 0.569824 -0.30957 
0.342041 0.570801 -0.310059 
0.344238 0.569824 -0.30957 
0.280029 0.456543 -0.248047 
0.282227 0.456543 -0.248047 
0.284424 0.456543 -0.248047 
0.286621 0.456543 -0.248047 
0.392334 0.611328 -0.332031 
0.395264 0.611328 -0.332031 
0.39624 0.60791 -0.330322 
0.397705 0.605957 -0.329346 
0.396729 0.600098 -0.325928 
0.395508 0.594238 -0.322754 
0.394287 0.587891 -0.319336 
0.39624 0.586914 -0.318848 
0.392334 0.577148 -0.313477 
0.390137 0.569824 -0.30957 
0.387451 0.562012 -0.305176 
0.387207 0.558105 -0.302979 
0.387207 0.553711 -0.300781 
0.386963 0.549805 -0.298828 
0.387451 0.546875 -0.297119 
0.387207 0.542969 -0.294922 
0.387695 0.540039 -0.293213 
0.387939 0.536621 -0.291748 
0.388428 0.533691 -0.290039 
0.388672 0.530762 -0.28833 
0.389648 0.528809 -0.287354 
0.390625 0.526855 -0.286133 
0.390869 0.523926 -0.284424 
0.392822 0.522949 -0.283936 
0.393555 0.520996 -0.282959 
0.394531 0.518555 -0.281738 
0.39624 0.517578 -0.28125 
0.397949 0.516602 -0.280762 
0.399658 0.515625 -0.280273 
0.401367 0.514648 -0.279541 
0.4021 0.512695 -0.278564 
0.403809 0.511719 -0.278076 
0.405518 0.510742 -0.277344 
0.407227 0.509766 -0.276855 
0.408691 0.508789 -0.276367 
0.409424 0.506836 -0.275391 
0.411133 0.505859 -0.274658 
0.412598 0.504883 -0.27417 
0.41333 0.50293 -0.273193 
0.415039 0.501953 -0.272461 
0.416504 0.500488 -0.271973 
0.417969 0.499756 -0.271484 
0.418701 0.497803 -0.270264 
0.420166 0.496826 -0.269775 
0.421875 0.49585 -0.269287 
0.42334 0.494873 -0.268799 
0.423828 0.49292 -0.267578 
0.425293 0.491699 -0.26709 
0.426758 0.490723 -0.266602 
0.42749 0.48877 -0.265381 
0.428955 0.487793 -0.264893 
0.430176 0.486816 -0.264404 
0.431641 0.48584 -0.263916 
0.368896 0.406494 -0.220825 
0.368896 0.404541 -0.219727 
0.369141 0.402344 -0.218628 
0.369141 0.400391 -0.217529 
0.369141 0.398438 -0.216431 
0.369141 0.396484 -0.215332 
0.369141 0.394531 -0.214233 
0.370117 0.393311 -0.213745 
0.370117 0.391357 -0.212646 
0.370117 0.389404 -0.211548 
0.37085 0.388428 -0.210938 
0.37085 0.386475 -0.209839 
0.371826 0.385498 -0.209351 
0.372559 0.384277 -0.20874 
0.373535 0.383301 -0.208252 
0.374268 0.382324 -0.207764 
0.375 0.381348 -0.207153 
0.375977 0.380371 -0.206665 
0.376709 0.379395 -0.206055 
-0.225586 0.280029 -0.153442 
-0.224243 0.280029 -0.153442 
-0.222168 0.279053 -0.152832 
-0.220825 0.279053 -0.152832 
-0.219482 0.279053 -0.152832 
-0.218994 0.280029 -0.153442 
-0.217651 0.280029 -0.153442 
-0.216309 0.280029 -0.153442 
-0.214966 0.280029 -0.153442 
-0.213623 0.280029 -0.153442 
-0.21228 0.280029 -0.153442 
-0.210938 0.280029 -0.153442 
-0.209595 0.280029 -0.153442 
-0.208374 0.280029 -0.153442 
-0.207031 0.280029 -0.153442 
-0.205688 0.280029 -0.153442 
-0.204346 0.280029 -0.153442 
-0.203003 0.280029 -0.153442 
-0.20166 0.280029 -0.153442 
-0.200317 0.280029 -0.153442 
-0.198975 0.280029 -0.153442 
-0.197632 0.280029 -0.153442 
-0.196411 0.280029 -0.153442 
-0.195068 0.280029 -0.153442 
-0.194336 0.281006 -0.153931 
-0.192993 0.281006 -0.153931 
-0.191772 0.281006 -0.153931 
-0.19043 0.281006 -0.153931 
-0.189087 0.281006 -0.153931 
-0.187744 0.281006 -0.153931 
-0.186401 0.281006 -0.153931 
-0.185059 0.281006 -0.153931 
-0.183716 0.281006 -0.153931 
-0.182373 0.281006 -0.153931 
-0.18103 0.281006 -0.153931 
-0.179688 0.281006 -0.153931 
-0.178345 0.281006 -0.153931 
-0.177002 0.281006 -0.153931 
-0.175659 0.281006 -0.153931 
-0.175049 0.281982 -0.154541 
-0.173096 0.281006 -0.153931 
-0.171753 0.281006 -0.153931 
-0.1698 0.280029 -0.153442 
-0.168457 0.280029 -0.153442 
-0.167114 0.280029 -0.153442 
-0.165771 0.280029 -0.153442 
-0.164429 0.280029 -0.153442 
-0.163086 0.280029 -0.153442 
-0.161743 0.280029 -0.153442 
-0.1604 0.280029 -0.153442 
-0.15918 0.280029 -0.153442 
-0.157837 0.280029 -0.153442 
-0.156494 0.280029 -0.153442 
-0.155151 0.280029 -0.153442 
-0.153809 0.280029 -0.153442 
-0.152466 0.280029 -0.153442 
-0.151123 0.280029 -0.153442 
-0.14978 0.280029 -0.153442 
-0.148438 0.280029 -0.153442 
-0.147217 0.280029 -0.153442 
-0.145874 0.280029 -0.153442 
-0.144531 0.280029 -0.153442 
-0.143188 0.280029 -0.153442 
-0.141846 0.280029 -0.153442 
-0.140503 0.280029 -0.153442 
-0.13916 0.280029 -0.153442 
-0.137817 0.280029 -0.153442 
-0.136475 0.280029 -0.153442 
-0.135254 0.280029 -0.153442 
-0.133911 0.280029 -0.153442 
-0.132568 0.280029 -0.153442 
-0.131226 0.280029 -0.153442 
-0.129395 0.279053 -0.152832 
-0.128052 0.279053 -0.152832 
-0.599609 1.42383 -0.780273 
-0.5922849 1.42188 -0.7792969 
-0.5854489 1.42188 -0.7792969 
-0.5791019 1.42285 -0.7797849 
-0.572754 1.42383 -0.780273 
-0.5668949 1.42578 -0.7812499 
-0.5610349 1.42871 -0.7832029 
-0.555176 1.43066 -0.7841799 
-0.5488279 1.43164 -0.784668 
-0.5410159 1.42871 -0.7832029 
-0.5332029 1.42676 -0.7822269 
-0.5268549 1.42773 -0.782715 
-0.5209959 1.42969 -0.7836909 
-0.514648 1.43164 -0.784668 
-0.5092769 1.43555 -0.7866209 
-0.5029299 1.4375 -0.787598 
-0.49707 1.43945 -0.7885739 
-0.490479 1.44043 -0.789062 
-0.483643 1.44043 -0.789062 
-0.476562 1.43945 -0.7885739 
-0.468994 1.4375 -0.787598 
-0.461914 1.43652 -0.787109 
-0.45459 1.43555 -0.7866209 
-0.447266 1.43359 -0.785156 
-0.439941 1.43066 -0.7841799 
-0.432129 1.42773 -0.782715 
-0.424805 1.42578 -0.7812499 
-0.41748 1.42383 -0.780273 
-0.410156 1.42188 -0.7792969 
-0.403076 1.4209 -0.778809 
-0.395996 1.41992 -0.77832 
-0.38916 1.41992 -0.77832 
-0.382568 1.41992 -0.77832 
-0.375977 1.4209 -0.778809 
-0.369385 1.4209 -0.778809 
-0.362549 1.4209 -0.778809 
-0.355713 1.4209 -0.778809 
-0.349365 1.42188 -0.7792969 
-0.342773 1.42285 -0.7797849 
-0.336426 1.4248 -0.780762 
-0.330078 1.42578 -0.7812499 
-0.323975 1.42871 -0.7832029 
-0.317871 1.43359 -0.785156 
-0.312012 1.4375 -0.787598 
-0.306152 1.44141 -0.789551 
-0.299805 1.44434 -0.791504 
-0.293213 1.44531 -0.7919919 
-0.286133 1.44434 -0.791504 
-0.278809 1.44141 -0.789551 
-0.270508 1.43457 -0.7856449 
-0.262451 1.42676 -0.7822269 
-0.254395 1.41992 -0.77832 
-0.246338 1.41211 -0.773926 
-0.238647 1.40625 -0.7705079 
-0.230957 1.40039 -0.76709 
-0.223633 1.39551 -0.765137 
-0.216431 1.3916 -0.762695 
-0.209351 1.38867 -0.7612299 
-0.202271 1.38574 -0.7592769 
-0.195435 1.38379 -0.758301 
-0.188477 1.38086 -0.7568359 
-0.181641 1.37891 -0.7553709 
-0.174683 1.37598 -0.753906 
-0.167969 1.37402 -0.7529299 
-0.161011 1.37109 -0.7509769 
-0.154297 1.36914 -0.7499999 
-0.147461 1.36621 -0.7485349 
-0.140747 1.36328 -0.7465819 
-0.134033 1.36035 -0.7456049 
-0.127319 1.35742 -0.7441409 
-0.120789 1.35645 -0.7436519 
-0.114258 1.35547 -0.7431639 
-0.107727 1.35449 -0.7421879 
-0.101379 1.35547 -0.7431639 
-0.09490969 1.35547 -0.7431639 
-0.08862299 1.35742 -0.7441409 
-0.08227539 1.35938 -0.7451169 
-0.07598879 1.3623 -0.7460939 
-0.06964109 1.36523 -0.7480469 
-0.06335449 1.36914 -0.7499999 
-0.0570679 1.37402 -0.7529299 
-0.0507812 1.37988 -0.756348 
-0.04440309 1.38574 -0.7592769 
-0.0380554 1.39355 -0.7636719 
-0.0316162 1.40234 -0.7680659 
-0.0251312 1.41113 -0.7729489 
-0.0185547 1.41992 -0.77832 
-0.011879 1.42773 -0.782715 
-0.005123139 1.43457 -0.7856449 
0.001688 1.43945 -0.7885739 
0.008537289 1.44336 -0.7910159 
0.0154266 1.44629 -0.7924799 
0.0223389 1.44922 -0.793945 
0.0292511 1.45117 -0.7954099 
0.0362244 1.4541 -0.7968749 
0.0431824 1.45605 -0.7978519 
0.0502319 1.45996 -0.800293 
0.057312 1.46387 -0.8022459 
0.0644531 1.46973 -0.805176 
0.07171629 1.47559 -0.8085939 
0.07910159 1.48242 -0.812012 
0.08648679 1.48828 -0.8154299 
0.09387209 1.49316 -0.818359 
0.101196 1.49609 -0.8198239 
0.108337 1.49707 -0.820312 
0.11554 1.49805 -0.8212889 
0.122681 1.49805 -0.8212889 
0.129639 1.49707 -0.820312 
0.136719 1.49707 -0.820312 
0.143921 1.49707 -0.820312 
0.150879 1.49609 -0.8198239 
0.157959 1.49609 -0.8198239 
0.164917 1.49512 -0.8193359 
0.172119 1.49512 -0.8193359 
0.179077 1.49414 -0.818848 
0.186157 1.49414 -0.818848 
0.193237 1.49414 -0.818848 
0.200317 1.49414 -0.818848 
0.207275 1.49316 -0.818359 
0.214355 1.49316 -0.818359 
0.221191 1.49121 -0.8173829 
0.228149 1.49023 -0.816406 
0.234863 1.48828 -0.8154299 
0.241577 1.48633 -0.8144529 
0.248291 1.48438 -0.8134769 
0.254883 1.48242 -0.812012 
0.261719 1.48047 -0.8110349 
0.268555 1.47949 -0.8105469 
0.275391 1.47852 -0.810059 
0.282227 1.47754 -0.80957 
0.289062 1.47754 -0.80957 
0.296387 1.47852 -0.810059 
0.303467 1.47852 -0.810059 
0.310547 1.47949 -0.8105469 
0.317871 1.48047 -0.8110349 
0.324951 1.48047 -0.8110349 
0.332031 1.48047 -0.8110349 
0.338867 1.48047 -0.8110349 
0.345703 1.47949 -0.8105469 
0.352295 1.47754 -0.80957 
0.359131 1.47656 -0.8090819 
0.365479 1.47461 -0.8076169 
0.37207 1.47266 -0.8066409 
0.378906 1.47168 -0.8061519 
0.385254 1.46973 -0.805176 
0.391602 1.4668 -0.8041989 
0.398193 1.46484 -0.802734 
0.404785 1.46387 -0.8022459 
0.411133 1.46191 -0.8012699 
0.417725 1.46094 -0.800781 
0.424072 1.45898 -0.7998049 
0.430908 1.45801 -0.7988279 
0.4375 1.45703 -0.79834 
0.444092 1.45605 -0.7978519 
0.450928 1.45605 -0.7978519 
0.45752 1.45508 -0.7973629 
0.464355 1.45508 -0.7973629 
0.471436 1.45508 -0.7973629 
0.478271 1.45508 -0.7973629 
0.485107 1.45508 -0.7973629 
0.492188 1.45508 -0.7973629 
0.498779 1.4541 -0.7968749 
0.5048829 1.45312 -0.796387 
0.5117189 1.45215 -0.795898 
0.5180659 1.45117 -0.7954099 
0.5244139 1.44922 -0.793945 
0.530762 1.44824 -0.7934569 
0.537598 1.44727 -0.7929689 
0.543945 1.44629 -0.7924799 
0.550293 1.44531 -0.7919919 
0.5566409 1.44434 -0.791504 
0.5634769 1.44336 -0.7910159 
0.5698239 1.44238 -0.7900389 
0.5761719 1.44141 -0.789551 
0.582031 1.43945 -0.7885739 
0.5878909 1.43652 -0.787109 
0.592773 1.43164 -0.784668 
0.597656 1.42676 -0.7822269 
0.601562 1.41992 -0.77832 
0.6035159 1.40918 -0.771973 
0.604004 1.39453 -0.7641599 
0.6025389 1.37598 -0.753906 
0.5991209 1.35352 -0.7416989 
0.5947269 1.33008 -0.7285159 
0.591309 1.30762 -0.716309 
0.5888669 1.29004 -0.706543 
0.588379 1.27441 -0.6982419 
0.5888669 1.26367 -0.6923829 
0.59082 1.25488 -0.6874999 
0.5937499 1.24805 -0.6840819 
0.597656 1.24316 -0.6811519 
0.601562 1.23926 -0.6791989 
0.606445 1.2373 -0.678223 
0.6113279 1.23535 -0.6767579 
0.321533 0.593262 -0.324951 
0.32373 0.592285 -0.324463 
0.325439 0.589844 -0.323242 
0.327148 0.587891 -0.322266 
0.328857 0.585938 -0.321045 
0.330566 0.583984 -0.320068 
0.332764 0.583008 -0.31958 
0.33252 0.578125 -0.31665 
0.334229 0.576172 -0.315674 
0.274414 0.45459 -0.249146 
0.276611 0.45459 -0.249146 
0.278809 0.45459 -0.249146 
0.281006 0.45459 -0.249146 
0.283203 0.45459 -0.249146 
0.284668 0.453613 -0.248535 
0.286133 0.452637 -0.248047 
0.287598 0.45166 -0.247437 
0.288574 0.449707 -0.246338 
0.388184 0.566895 -0.310791 
0.385986 0.560059 -0.306885 
0.386719 0.557129 -0.305176 
0.386475 0.552734 -0.302979 
0.38623 0.548828 -0.300781 
0.386719 0.545898 -0.299072 
0.385742 0.541016 -0.296387 
0.38623 0.538086 -0.294678 
0.387207 0.535645 -0.293701 
0.387695 0.532715 -0.291992 
0.387939 0.529785 -0.290283 
0.388916 0.527832 -0.289307 
0.38916 0.524902 -0.287598 
0.390137 0.522949 -0.286377 
0.391113 0.520996 -0.2854 
0.39209 0.518555 -0.28418 
0.393066 0.516602 -0.283203 
0.394775 0.515625 -0.282715 
0.396484 0.514648 -0.281982 
0.397217 0.512695 -0.281006 
0.398926 0.511719 -0.280518 
0.400635 0.510742 -0.279785 
0.402344 0.509766 -0.279297 
0.403809 0.508789 -0.278809 
0.405518 0.507812 -0.27832 
0.40625 0.505859 -0.2771 
0.407959 0.504883 -0.276611 
0.409424 0.503906 -0.276123 
0.410156 0.501953 -0.274902 
0.411865 0.500488 -0.274414 
0.41333 0.499756 -0.273926 
0.414795 0.498779 -0.273193 
0.416504 0.497803 -0.272705 
0.417969 0.496826 -0.272217 
0.418457 0.494873 -0.270996 
0.420166 0.493896 -0.270508 
0.421631 0.49292 -0.27002 
0.423096 0.491699 -0.269531 
0.423584 0.489746 -0.268311 
0.425049 0.48877 -0.267822 
0.426514 0.487793 -0.267334 
0.427002 0.48584 -0.266113 
0.428467 0.484863 -0.265625 
0.428955 0.482666 -0.264404 
0.428711 0.479736 -0.262939 
0.429932 0.47876 -0.262207 
0.368896 0.404541 -0.22168 
0.369141 0.402344 -0.220581 
0.369141 0.400391 -0.219482 
0.369141 0.398438 -0.218384 
0.369141 0.396484 -0.217285 
0.369141 0.394531 -0.216187 
0.369141 0.392334 -0.214966 
0.370117 0.391357 -0.214478 
0.370117 0.389404 -0.213379 
0.37085 0.388428 -0.212769 
0.371826 0.387451 -0.21228 
0.372803 0.386475 -0.21167 
0.372559 0.384277 -0.210571 
0.373535 0.383301 -0.210083 
0.374268 0.382324 -0.209473 
0.375 0.381348 -0.208984 
0.376953 0.381348 -0.208984 
0.377686 0.380371 -0.208374 
-0.2229 0.274902 -0.151978 
-0.223145 0.276855 -0.153076 
-0.221802 0.276855 -0.153076 
-0.220581 0.276855 -0.153076 
-0.219238 0.276855 -0.153076 
-0.21875 0.278076 -0.153687 
-0.217407 0.278076 -0.153687 
-0.216064 0.278076 -0.153687 
-0.214722 0.278076 -0.153687 
-0.213379 0.278076 -0.153687 
-0.212158 0.278076 -0.153687 
-0.210815 0.278076 -0.153687 
-0.209473 0.278076 -0.153687 
-0.208862 0.279053 -0.154175 
-0.206787 0.278076 -0.153687 
-0.205444 0.278076 -0.153687 
-0.204224 0.278076 -0.153687 
-0.203613 0.279053 -0.154175 
-0.202271 0.279053 -0.154175 
-0.200928 0.279053 -0.154175 
-0.199585 0.279053 -0.154175 
-0.197632 0.278076 -0.153687 
-0.196289 0.278076 -0.153687 
-0.194946 0.278076 -0.153687 
-0.194336 0.279053 -0.154175 
-0.192993 0.279053 -0.154175 
-0.19165 0.279053 -0.154175 
-0.190308 0.279053 -0.154175 
-0.188965 0.279053 -0.154175 
-0.187744 0.279053 -0.154175 
-0.186401 0.279053 -0.154175 
-0.185059 0.279053 -0.154175 
-0.183716 0.279053 -0.154175 
-0.182373 0.279053 -0.154175 
-0.18103 0.279053 -0.154175 
-0.17981 0.279053 -0.154175 
-0.178467 0.279053 -0.154175 
-0.177124 0.279053 -0.154175 
-0.175781 0.279053 -0.154175 
-0.174438 0.279053 -0.154175 
-0.173096 0.279053 -0.154175 
-0.171753 0.279053 -0.154175 
-0.170532 0.279053 -0.154175 
-0.169189 0.279053 -0.154175 
-0.167847 0.279053 -0.154175 
-0.166504 0.279053 -0.154175 
-0.165161 0.279053 -0.154175 
-0.163818 0.279053 -0.154175 
-0.162476 0.279053 -0.154175 
-0.161255 0.279053 -0.154175 
-0.159912 0.279053 -0.154175 
-0.158569 0.279053 -0.154175 
-0.157227 0.279053 -0.154175 
-0.155884 0.279053 -0.154175 
-0.154541 0.279053 -0.154175 
-0.15332 0.279053 -0.154175 
-0.151978 0.279053 -0.154175 
-0.150635 0.279053 -0.154175 
-0.149292 0.279053 -0.154175 
-0.147949 0.279053 -0.154175 
-0.146606 0.279053 -0.154175 
-0.145264 0.279053 -0.154175 
-0.144043 0.279053 -0.154175 
-0.1427 0.279053 -0.154175 
-0.141357 0.279053 -0.154175 
-0.140015 0.279053 -0.154175 
-0.138672 0.279053 -0.154175 
-0.137329 0.279053 -0.154175 
-0.135986 0.279053 -0.154175 
-0.134766 0.279053 -0.154175 
-0.133423 0.279053 -0.154175 
-0.13208 0.279053 -0.154175 
-0.130249 0.278076 -0.153687 
-0.128906 0.278076 -0.153687 
-0.127686 0.278076 -0.153687 
-0.126343 0.278076 -0.153687 
-0.125 0.278076 -0.153687 
-0.123718 0.278076 -0.153687 
-0.122375 0.278076 -0.153687 
-0.121094 0.278076 -0.153687 
-0.119751 0.278076 -0.153687 
-0.118408 0.278076 -0.153687 
-0.116699 0.276855 -0.153076 
-0.115356 0.276855 -0.153076 
-0.114075 0.276855 -0.153076 
-0.112732 0.276855 -0.153076 
-0.11145 0.276855 -0.153076 
-0.110107 0.276855 -0.153076 
-0.108765 0.276855 -0.153076 
-0.107849 0.278076 -0.153687 
-0.106567 0.278076 -0.153687 
-0.5380859 1.42188 -0.7861329 
-0.5312499 1.4209 -0.7856449 
-0.5249019 1.42188 -0.7861329 
-0.5185549 1.42383 -0.787109 
-0.512695 1.42578 -0.7880859 
-0.5068359 1.42871 -0.7900389 
-0.5009769 1.43164 -0.791504 
-0.495117 1.43457 -0.7924799 
-0.48877 1.43555 -0.7929689 
-0.482178 1.43652 -0.793945 
-0.474854 1.43457 -0.7924799 
-0.467773 1.43359 -0.7919919 
-0.460938 1.43359 -0.7919919 
-0.453857 1.43164 -0.791504 
-0.446533 1.43066 -0.7910159 
-0.439209 1.42871 -0.7900389 
-0.431885 1.42676 -0.7885739 
-0.424072 1.42383 -0.787109 
-0.416748 1.42188 -0.7861329 
-0.409424 1.41992 -0.784668 
-0.402344 1.41895 -0.7841799 
-0.395508 1.41797 -0.7836909 
-0.388672 1.41797 -0.7836909 
-0.38208 1.41797 -0.7836909 
-0.375244 1.41797 -0.7836909 
-0.368408 1.41797 -0.7836909 
-0.361816 1.41797 -0.7836909 
-0.354736 1.41699 -0.7832029 
-0.348389 1.41797 -0.7836909 
-0.341553 1.41797 -0.7836909 
-0.335205 1.41992 -0.784668 
-0.328857 1.4209 -0.7856449 
-0.322754 1.42383 -0.787109 
-0.31665 1.42676 -0.7885739 
-0.310791 1.43066 -0.7910159 
-0.304932 1.43652 -0.793945 
-0.299072 1.44043 -0.795898 
-0.292725 1.44336 -0.7978519 
-0.285889 1.44336 -0.7978519 
-0.278564 1.44043 -0.795898 
-0.270752 1.43555 -0.7929689 
-0.262695 1.42773 -0.789551 
-0.254639 1.4209 -0.7856449 
-0.246704 1.41406 -0.7817379 
-0.23877 1.40723 -0.7778319 
-0.231079 1.40137 -0.7744139 
-0.223633 1.39551 -0.771484 
-0.216187 1.39062 -0.7685549 
-0.209229 1.3877 -0.76709 
-0.202148 1.38477 -0.7656249 
-0.19519 1.38184 -0.7636719 
-0.188232 1.37891 -0.7622069 
-0.181396 1.37695 -0.7612299 
-0.174438 1.37402 -0.7592769 
-0.167725 1.37207 -0.758301 
-0.160767 1.36914 -0.756348 
-0.153931 1.36621 -0.7548829 
-0.147217 1.36426 -0.753906 
-0.140503 1.36035 -0.7519529 
-0.133667 1.35742 -0.7504879 
-0.127075 1.35547 -0.749512 
-0.120605 1.35449 -0.749023 
-0.114075 1.35352 -0.7480469 
-0.107666 1.35352 -0.7480469 
-0.101196 1.35352 -0.7480469 
-0.0948486 1.35449 -0.749023 
-0.08850099 1.35547 -0.749512 
-0.08215329 1.35742 -0.7504879 
-0.07592769 1.36035 -0.7519529 
-0.06958009 1.36426 -0.753906 
-0.06329349 1.36816 -0.755859 
-0.05703739 1.37305 -0.7587889 
-0.0507507 1.37891 -0.7622069 
-0.04440309 1.38574 -0.7661129 
-0.0380554 1.39355 -0.7705079 
-0.0316162 1.40234 -0.7749019 
-0.0251312 1.41113 -0.7797849 
-0.0185394 1.41895 -0.7841799 
-0.0118713 1.42676 -0.7885739 
-0.00511932 1.43359 -0.7919919 
0.0016861 1.4375 -0.794434 
0.008529659 1.44141 -0.796387 
0.0154037 1.44434 -0.79834 
0.0223083 1.44727 -0.7998049 
0.0292358 1.4502 -0.8017579 
0.0361633 1.45215 -0.802734 
0.0431519 1.45508 -0.8041989 
0.0502014 1.45898 -0.8066409 
0.0572815 1.46289 -0.8085939 
0.0644531 1.46777 -0.811523 
0.07171629 1.47559 -0.8154299 
0.07904049 1.48145 -0.818848 
0.0864258 1.4873 -0.8222659 
0.09381099 1.49219 -0.8247069 
0.101135 1.49512 -0.8266599 
0.108276 1.49609 -0.827148 
0.115417 1.49609 -0.827148 
0.122498 1.49609 -0.827148 
0.129517 1.49609 -0.827148 
0.136597 1.49512 -0.8266599 
0.143677 1.49512 -0.8266599 
0.150757 1.49512 -0.8266599 
0.157715 1.49414 -0.8261719 
0.164917 1.49414 -0.8261719 
0.171997 1.49414 -0.8261719 
0.179077 1.49414 -0.8261719 
0.186157 1.49414 -0.8261719 
0.193237 1.49414 -0.8261719 
0.200195 1.49316 -0.825195 
0.207275 1.49316 -0.825195 
0.214233 1.49219 -0.8247069 
0.221069 1.49023 -0.8237299 
0.227783 1.48828 -0.822754 
0.234497 1.48633 -0.8212889 
0.241333 1.48438 -0.820312 
0.247803 1.48145 -0.818848 
0.254395 1.47949 -0.8173829 
0.26123 1.47754 -0.816406 
0.267822 1.47656 -0.815918 
0.274658 1.47559 -0.8154299 
0.281738 1.47559 -0.8154299 
0.288818 1.47559 -0.8154299 
0.295898 1.47656 -0.815918 
0.303223 1.47754 -0.816406 
0.310303 1.47852 -0.8168949 
0.317383 1.47852 -0.8168949 
0.324707 1.47949 -0.8173829 
0.331787 1.47949 -0.8173829 
0.338379 1.47852 -0.8168949 
0.345215 1.47754 -0.816406 
0.352051 1.47656 -0.815918 
0.358643 1.47461 -0.8149409 
0.365234 1.47363 -0.8144529 
0.371826 1.47168 -0.8129879 
0.378418 1.4707 -0.8124999 
0.38501 1.46777 -0.811523 
0.391357 1.46582 -0.8105469 
0.397949 1.46387 -0.8090819 
0.404541 1.46289 -0.8085939 
0.410889 1.46094 -0.8076169 
0.41748 1.45996 -0.807129 
0.423828 1.45801 -0.8061519 
0.43042 1.45703 -0.805176 
0.437012 1.45605 -0.8046879 
0.443848 1.45508 -0.8041989 
0.450439 1.4541 -0.8037109 
0.457275 1.4541 -0.8037109 
0.463867 1.45312 -0.803223 
0.470947 1.4541 -0.8037109 
0.478027 1.4541 -0.8037109 
0.484863 1.4541 -0.8037109 
0.491699 1.4541 -0.8037109 
0.498779 1.4541 -0.8037109 
0.5048829 1.45312 -0.803223 
0.5117189 1.45215 -0.802734 
0.5180659 1.45117 -0.8022459 
0.5249019 1.4502 -0.8017579 
0.5312499 1.44922 -0.800781 
0.537598 1.44824 -0.800293 
0.544434 1.44727 -0.7998049 
0.550781 1.44629 -0.7993159 
0.557129 1.44531 -0.7988279 
0.563965 1.44531 -0.7988279 
0.570312 1.44336 -0.7978519 
0.5766599 1.44238 -0.7968749 
0.5825199 1.44043 -0.795898 
0.5888669 1.43848 -0.7949219 
0.5937499 1.43457 -0.7924799 
0.5986329 1.42871 -0.7900389 
0.6025389 1.42285 -0.7866209 
0.6049799 1.41309 -0.780762 
0.606445 1.40039 -0.773926 
0.6054689 1.38281 -0.7641599 
0.6025389 1.3623 -0.7529299 
0.5986329 1.33887 -0.7397459 
0.595215 1.31641 -0.7275389 
0.5922849 1.29688 -0.7167969 
0.591309 1.28125 -0.7084959 
0.591309 1.26855 -0.7011719 
0.593262 1.25977 -0.6962889 
0.5957029 1.25195 -0.6923829 
0.5991209 1.24609 -0.688965 
0.6030269 1.24219 -0.686523 
0.6074219 1.23926 -0.685059 
0.6123049 1.2373 -0.6840819 
0.322021 0.594238 -0.328369 
0.324463 0.593262 -0.327881 
0.326172 0.591309 -0.32666 
0.327881 0.588867 -0.325684 
0.329346 0.586914 -0.324463 
0.331787 0.585938 -0.323975 
0.333984 0.584961 -0.323242 
0.271729 0.453613 -0.250732 
0.274414 0.45459 -0.251221 
0.276123 0.453613 -0.250732 
0.27832 0.453613 -0.250732 
0.280273 0.453613 -0.250732 
0.281982 0.452637 -0.25 
0.283936 0.452637 -0.25 
0.285645 0.45166 -0.249634 
0.286377 0.449707 -0.248535 
0.288574 0.449707 -0.248535 
0.290039 0.44873 -0.247925 
0.291504 0.44751 -0.247437 
0.302734 0.44873 -0.247925 
0.304932 0.44873 -0.247925 
0.307129 0.44873 -0.247925 
0.309814 0.449707 -0.248535 
0.314941 0.450684 -0.249023 
0.38501 0.540039 -0.29834 
0.38623 0.538086 -0.297363 
0.386475 0.534668 -0.295654 
0.38623 0.530762 -0.293457 
0.387207 0.528809 -0.292236 
0.387451 0.525879 -0.290527 
0.388428 0.523926 -0.289551 
0.388672 0.520996 -0.287842 
0.389648 0.518555 -0.286621 
0.390625 0.516602 -0.285645 
0.392334 0.515625 -0.285156 
0.393311 0.513672 -0.283936 
0.39502 0.512695 -0.283447 
0.395752 0.510742 -0.282227 
0.397461 0.509766 -0.281738 
0.39917 0.508789 -0.28125 
0.399902 0.506836 -0.280029 
0.401611 0.505859 -0.279541 
0.403076 0.504883 -0.279053 
0.404785 0.503906 -0.27832 
0.40625 0.50293 -0.277832 
0.406982 0.500488 -0.276855 
0.408691 0.499756 -0.276123 
0.410156 0.498779 -0.275635 
0.411621 0.497803 -0.275146 
0.413086 0.496826 -0.274414 
0.413818 0.494873 -0.273438 
0.415283 0.493896 -0.272949 
0.416992 0.49292 -0.272217 
0.418457 0.491699 -0.271729 
0.419922 0.490723 -0.27124 
0.42041 0.48877 -0.27002 
0.421875 0.487793 -0.269531 
0.42334 0.486816 -0.269043 
0.423828 0.484863 -0.267822 
0.425293 0.483887 -0.267334 
0.425781 0.481689 -0.266113 
0.427246 0.480713 -0.265625 
0.426758 0.477783 -0.263916 
0.428223 0.476807 -0.263428 
0.428711 0.474854 -0.262207 
0.369141 0.402344 -0.222412 
0.369141 0.400391 -0.221313 
0.369141 0.398438 -0.220215 
0.368164 0.395508 -0.218506 
0.368164 0.393311 -0.217407 
0.369141 0.392334 -0.216919 
0.370117 0.391357 -0.216309 
0.370117 0.389404 -0.21521 
0.37085 0.388428 -0.214722 
0.371826 0.387451 -0.214111 
0.372803 0.386475 -0.213501 
0.373535 0.385498 -0.213013 
0.374512 0.384277 -0.212402 
0.375244 0.383301 -0.211914 
0.375977 0.382324 -0.211304 
0.37793 0.382324 -0.211304 
-0.2229 0.274902 -0.15332 
-0.222412 0.275879 -0.153809 
-0.221069 0.275879 -0.153809 
-0.219727 0.275879 -0.153809 
-0.218384 0.275879 -0.153809 
-0.217163 0.275879 -0.153809 
-0.21582 0.275879 -0.153809 
-0.215332 0.276855 -0.154419 
-0.213989 0.276855 -0.154419 
-0.212646 0.276855 -0.154419 
-0.211304 0.276855 -0.154419 
-0.209961 0.276855 -0.154419 
-0.20874 0.276855 -0.154419 
-0.20813 0.278076 -0.154907 
-0.206055 0.276855 -0.154419 
-0.204712 0.276855 -0.154419 
-0.203491 0.276855 -0.154419 
-0.202148 0.276855 -0.154419 
-0.200806 0.276855 -0.154419 
-0.199463 0.276855 -0.154419 
-0.198242 0.276855 -0.154419 
-0.196899 0.276855 -0.154419 
-0.195557 0.276855 -0.154419 
-0.194214 0.276855 -0.154419 
-0.192871 0.276855 -0.154419 
-0.19165 0.276855 -0.154419 
-0.190308 0.276855 -0.154419 
-0.188965 0.276855 -0.154419 
-0.187622 0.276855 -0.154419 
-0.186401 0.276855 -0.154419 
-0.185059 0.276855 -0.154419 
-0.183716 0.276855 -0.154419 
-0.182373 0.276855 -0.154419 
-0.18103 0.276855 -0.154419 
-0.17981 0.276855 -0.154419 
-0.178467 0.276855 -0.154419 
-0.177124 0.276855 -0.154419 
-0.175781 0.276855 -0.154419 
-0.174561 0.276855 -0.154419 
-0.173218 0.276855 -0.154419 
-0.171265 0.275879 -0.153809 
-0.170532 0.276855 -0.154419 
-0.169312 0.276855 -0.154419 
-0.167969 0.276855 -0.154419 
-0.166626 0.276855 -0.154419 
-0.165283 0.276855 -0.154419 
-0.16394 0.276855 -0.154419 
-0.16272 0.276855 -0.154419 
-0.161377 0.276855 -0.154419 
-0.160645 0.278076 -0.154907 
-0.159302 0.278076 -0.154907 
-0.157959 0.278076 -0.154907 
-0.156616 0.278076 -0.154907 
-0.155396 0.278076 -0.154907 
-0.154053 0.278076 -0.154907 
-0.1521 0.276855 -0.154419 
-0.150879 0.276855 -0.154419 
-0.149536 0.276855 -0.154419 
-0.148193 0.276855 -0.154419 
-0.147461 0.278076 -0.154907 
-0.146118 0.278076 -0.154907 
-0.144775 0.278076 -0.154907 
-0.143433 0.278076 -0.154907 
-0.14209 0.278076 -0.154907 
-0.140869 0.278076 -0.154907 
-0.139526 0.278076 -0.154907 
-0.138184 0.278076 -0.154907 
-0.136841 0.278076 -0.154907 
-0.135498 0.278076 -0.154907 
-0.134277 0.278076 -0.154907 
-0.132935 0.278076 -0.154907 
-0.131592 0.278076 -0.154907 
-0.130249 0.278076 -0.154907 
-0.12854 0.276855 -0.154419 
-0.127197 0.276855 -0.154419 
-0.125854 0.276855 -0.154419 
-0.124573 0.276855 -0.154419 
-0.12323 0.276855 -0.154419 
-0.121948 0.276855 -0.154419 
-0.120605 0.276855 -0.154419 
-0.119324 0.276855 -0.154419 
-0.117981 0.276855 -0.154419 
-0.116699 0.276855 -0.154419 
-0.115356 0.276855 -0.154419 
-0.114075 0.276855 -0.154419 
-0.112732 0.276855 -0.154419 
-0.11145 0.276855 -0.154419 
-0.110107 0.276855 -0.154419 
-0.108765 0.276855 -0.154419 
-0.107483 0.276855 -0.154419 
-0.10614 0.276855 -0.154419 
-0.104858 0.276855 -0.154419 
-0.103516 0.276855 -0.154419 
-0.101868 0.275879 -0.153809 
-0.100525 0.275879 -0.153809 
-0.09924319 0.275879 -0.153809 
-0.09790039 0.275879 -0.153809 
-0.09661869 0.275879 -0.153809 
-0.09527589 0.275879 -0.153809 
-0.0939941 0.275879 -0.153809 
-0.473145 1.42871 -0.7968749 
-0.467041 1.43066 -0.7978519 
-0.460205 1.43066 -0.7978519 
-0.453369 1.43066 -0.7978519 
-0.446289 1.42969 -0.7973629 
-0.438965 1.42773 -0.795898 
-0.431396 1.42578 -0.7949219 
-0.423828 1.42285 -0.7934569 
-0.416504 1.4209 -0.7919919 
-0.40918 1.41895 -0.7910159 
-0.4021 1.41797 -0.7905269 
-0.395264 1.41699 -0.7900389 
-0.388428 1.41699 -0.7900389 
-0.381592 1.41699 -0.7900389 
-0.375 1.41699 -0.7900389 
-0.36792 1.41602 -0.789551 
-0.361328 1.41602 -0.789551 
-0.354492 1.41602 -0.789551 
-0.347656 1.41504 -0.789062 
-0.341064 1.41602 -0.789551 
-0.334717 1.41699 -0.7900389 
-0.327881 1.41699 -0.7900389 
-0.321777 1.41992 -0.791504 
-0.315674 1.42285 -0.7934569 
-0.310059 1.42773 -0.795898 
-0.304443 1.43359 -0.7988279 
-0.298584 1.43848 -0.8017579 
-0.29248 1.44141 -0.803223 
-0.285645 1.44238 -0.8037109 
-0.278564 1.44043 -0.802734 
-0.270996 1.43652 -0.800781 
-0.262939 1.42969 -0.7973629 
-0.254883 1.42285 -0.7934569 
-0.246826 1.41504 -0.789062 
-0.238892 1.4082 -0.784668 
-0.231079 1.40137 -0.780762 
-0.223633 1.39551 -0.77832 
-0.216187 1.39062 -0.7753909 
-0.208984 1.38672 -0.7729489 
-0.202026 1.38379 -0.771484 
-0.194946 1.38086 -0.7700199 
-0.187988 1.37793 -0.7680659 
-0.181274 1.37598 -0.76709 
-0.174316 1.37305 -0.765137 
-0.16748 1.37012 -0.7636719 
-0.160645 1.36816 -0.762695 
-0.153809 1.36523 -0.7607419 
-0.147095 1.3623 -0.7592769 
-0.140259 1.3584 -0.7573239 
-0.133667 1.35645 -0.756348 
-0.126953 1.35449 -0.7553709 
-0.120422 1.35254 -0.753906 
-0.114014 1.35254 -0.753906 
-0.107544 1.35254 -0.753906 
-0.101135 1.35254 -0.753906 
-0.09478759 1.35352 -0.7548829 
-0.08850099 1.35547 -0.755859 
-0.08215329 1.35742 -0.7568359 
-0.07586669 1.35938 -0.757812 
-0.06958009 1.36426 -0.760254 
-0.06329349 1.36816 -0.762695 
-0.05703739 1.37305 -0.765137 
-0.0507507 1.37891 -0.7685549 
-0.04440309 1.38574 -0.7724609 
-0.0380554 1.39355 -0.7768549 
-0.0316162 1.40234 -0.7817379 
-0.0251312 1.41113 -0.7866209 
-0.0185394 1.41895 -0.7910159 
-0.0118637 1.42578 -0.7949219 
-0.00511169 1.43066 -0.7978519 
0.00168419 1.43652 -0.800781 
0.008522029 1.44043 -0.802734 
0.0153961 1.44336 -0.8046879 
0.0222931 1.44629 -0.8061519 
0.0291901 1.44824 -0.807129 
0.0361328 1.45117 -0.8090819 
0.0431213 1.4541 -0.8105469 
0.05017089 1.45801 -0.8129879 
0.057251 1.46191 -0.8149409 
0.0644531 1.46777 -0.818359 
0.07171629 1.47461 -0.8217769 
0.07904049 1.48145 -0.825684 
0.0864258 1.4873 -0.8291019 
0.09374999 1.49121 -0.831543 
0.101074 1.49414 -0.8330079 
0.108215 1.49512 -0.8334959 
0.115295 1.49512 -0.8334959 
0.122437 1.49512 -0.8334959 
0.129395 1.49414 -0.8330079 
0.136475 1.49414 -0.8330079 
0.143433 1.49316 -0.8325199 
0.150635 1.49316 -0.8325199 
0.157715 1.49316 -0.8325199 
0.164795 1.49316 -0.8325199 
0.171875 1.49316 -0.8325199 
0.178955 1.49316 -0.8325199 
0.186035 1.49316 -0.8325199 
0.193115 1.49316 -0.8325199 
0.200195 1.49316 -0.8325199 
0.207153 1.49219 -0.832031 
0.213989 1.49023 -0.8305659 
0.220825 1.48926 -0.8300779 
0.227539 1.48633 -0.8286129 
0.234253 1.48438 -0.827637 
0.240845 1.48145 -0.825684 
0.247314 1.47852 -0.8242189 
0.253906 1.47656 -0.822754 
0.260498 1.47461 -0.8217769 
0.267334 1.47363 -0.8212889 
0.27417 1.47266 -0.820801 
0.28125 1.47266 -0.820801 
0.28833 1.47363 -0.8212889 
0.295654 1.47461 -0.8217769 
0.302734 1.47559 -0.8222659 
0.310059 1.47656 -0.822754 
0.317139 1.47754 -0.8237299 
0.324219 1.47754 -0.8237299 
0.331299 1.47754 -0.8237299 
0.338135 1.47656 -0.822754 
0.344727 1.47559 -0.8222659 
0.351562 1.47461 -0.8217769 
0.358398 1.47363 -0.8212889 
0.364746 1.47168 -0.820312 
0.371582 1.4707 -0.8198239 
0.37793 1.46777 -0.818359 
0.384766 1.4668 -0.8178709 
0.391113 1.46484 -0.8168949 
0.397461 1.46289 -0.815918 
0.404297 1.46191 -0.8149409 
0.410645 1.45996 -0.813965 
0.417236 1.45898 -0.8134769 
0.423584 1.45703 -0.8124999 
0.430176 1.45605 -0.812012 
0.436523 1.4541 -0.8105469 
0.443115 1.45312 -0.810059 
0.449707 1.45215 -0.80957 
0.456543 1.45215 -0.80957 
0.463623 1.45215 -0.80957 
0.470459 1.45215 -0.80957 
0.477295 1.45215 -0.80957 
0.484619 1.45312 -0.810059 
0.491455 1.45312 -0.810059 
0.498291 1.45312 -0.810059 
0.5048829 1.45312 -0.810059 
0.5117189 1.45215 -0.80957 
0.5180659 1.45117 -0.8090819 
0.5249019 1.4502 -0.8085939 
0.5317379 1.4502 -0.8085939 
0.5380859 1.44922 -0.8076169 
0.544434 1.44824 -0.807129 
0.5512699 1.44727 -0.8066409 
0.5581049 1.44727 -0.8066409 
0.5644529 1.44629 -0.8061519 
0.570801 1.44531 -0.8056639 
0.577148 1.44434 -0.805176 
0.5834959 1.44238 -0.8037109 
0.5888669 1.43945 -0.8022459 
0.5947269 1.43652 -0.800781 
0.599609 1.43164 -0.79834 
0.604004 1.42578 -0.7949219 
0.606934 1.41699 -0.7900389 
0.608887 1.40625 -0.7836909 
0.608398 1.38965 -0.7749019 
0.606445 1.37109 -0.7641599 
0.6035159 1.34863 -0.7519529 
0.599609 1.32715 -0.7397459 
0.597168 1.30762 -0.729004 
0.5957029 1.29102 -0.7192379 
0.5957029 1.27734 -0.7119139 
0.5966799 1.2666 -0.7060549 
0.5981449 1.25781 -0.7011719 
0.6005859 1.25 -0.6972659 
0.6044919 1.24512 -0.6943359 
0.608887 1.24219 -0.6923829 
0.613281 1.23926 -0.690918 
0.322021 0.594238 -0.331055 
0.324463 0.593262 -0.330566 
0.32666 0.592285 -0.330078 
0.328369 0.589844 -0.328857 
0.330566 0.588867 -0.328369 
0.332275 0.586914 -0.327148 
0.334473 0.585938 -0.32666 
0.271729 0.453613 -0.25293 
0.273926 0.453613 -0.25293 
0.275391 0.452637 -0.252197 
0.277588 0.452637 -0.252197 
0.279053 0.45166 -0.251709 
0.28125 0.45166 -0.251709 
0.282715 0.450684 -0.251221 
0.28418 0.449707 -0.250488 
0.285889 0.44873 -0.25 
0.287842 0.44873 -0.25 
0.289307 0.44751 -0.249512 
0.291504 0.44751 -0.249512 
0.293701 0.44751 -0.249512 
0.295166 0.446533 -0.249023 
0.297119 0.446533 -0.249023 
0.300781 0.44873 -0.25 
0.302734 0.44873 -0.25 
0.304199 0.44751 -0.249512 
0.307129 0.44873 -0.25 
0.309326 0.44873 -0.25 
0.311279 0.44873 -0.25 
0.313477 0.44873 -0.25 
0.315674 0.44873 -0.25 
0.317627 0.44873 -0.25 
0.319824 0.44873 -0.25 
0.322021 0.44873 -0.25 
0.385498 0.529785 -0.29541 
0.386475 0.527832 -0.294189 
0.386719 0.524902 -0.29248 
0.386963 0.521973 -0.290771 
0.387939 0.52002 -0.289795 
0.388184 0.516602 -0.288086 
0.389893 0.515625 -0.287598 
0.390869 0.513672 -0.286377 
0.391602 0.511719 -0.2854 
0.393311 0.510742 -0.284668 
0.394287 0.508789 -0.283691 
0.395752 0.507812 -0.282959 
0.397461 0.506836 -0.282471 
0.398193 0.504883 -0.28125 
0.399902 0.503906 -0.280762 
0.401611 0.50293 -0.280273 
0.403076 0.501953 -0.279785 
0.403809 0.499756 -0.278564 
0.405273 0.498779 -0.278076 
0.406982 0.497803 -0.277344 
0.408447 0.496826 -0.276855 
0.40918 0.494873 -0.275879 
0.410645 0.493896 -0.275146 
0.412109 0.49292 -0.274658 
0.413574 0.491699 -0.27417 
0.415283 0.490723 -0.273438 
0.415771 0.48877 -0.272461 
0.417236 0.487793 -0.271973 
0.418701 0.486816 -0.27124 
0.420166 0.48584 -0.270752 
0.420654 0.483887 -0.269531 
0.422119 0.482666 -0.269043 
0.422607 0.480713 -0.267822 
0.424072 0.479736 -0.267334 
0.424561 0.477783 -0.266357 
0.425049 0.47583 -0.265137 
0.42627 0.474854 -0.264648 
0.426758 0.472656 -0.263428 
0.366455 0.393311 -0.21936 
0.367432 0.392334 -0.21875 
0.368164 0.391357 -0.21814 
0.369141 0.390381 -0.217651 
0.370117 0.389404 -0.217041 
0.37085 0.388428 -0.216553 
0.372803 0.388428 -0.216553 
0.373779 0.387451 -0.215942 
0.374512 0.386475 -0.215454 
0.375488 0.385498 -0.214844 
0.376221 0.384277 -0.214233 
0.377197 0.383301 -0.213745 
0.37793 0.382324 -0.213135 
0.380615 0.383301 -0.213745 
-0.222046 0.273926 -0.154053 
-0.221558 0.274902 -0.154541 
-0.219482 0.273926 -0.154053 
-0.218994 0.274902 -0.154541 
-0.217651 0.274902 -0.154541 
-0.216309 0.274902 -0.154541 
-0.214966 0.274902 -0.154541 
-0.214478 0.275879 -0.155151 
-0.213135 0.275879 -0.155151 
-0.211914 0.275879 -0.155151 
-0.210571 0.275879 -0.155151 
-0.209229 0.275879 -0.155151 
-0.208008 0.275879 -0.155151 
-0.205933 0.274902 -0.154541 
-0.20459 0.274902 -0.154541 
-0.203247 0.274902 -0.154541 
-0.202026 0.274902 -0.154541 
-0.200684 0.274902 -0.154541 
-0.200073 0.275879 -0.155151 
-0.197998 0.274902 -0.154541 
-0.196777 0.274902 -0.154541 
-0.195435 0.274902 -0.154541 
-0.194092 0.274902 -0.154541 
-0.192871 0.274902 -0.154541 
-0.191528 0.274902 -0.154541 
-0.190186 0.274902 -0.154541 
-0.189575 0.275879 -0.155151 
-0.188232 0.275879 -0.155151 
-0.187012 0.275879 -0.155151 
-0.185669 0.275879 -0.155151 
-0.184326 0.275879 -0.155151 
-0.183105 0.275879 -0.155151 
-0.181763 0.275879 -0.155151 
-0.18042 0.275879 -0.155151 
-0.179077 0.275879 -0.155151 
-0.177856 0.275879 -0.155151 
-0.175903 0.274902 -0.154541 
-0.174561 0.274902 -0.154541 
-0.173828 0.275879 -0.155151 
-0.171997 0.274902 -0.154541 
-0.170654 0.274902 -0.154541 
-0.169312 0.274902 -0.154541 
-0.167969 0.274902 -0.154541 
-0.166748 0.274902 -0.154541 
-0.165405 0.274902 -0.154541 
-0.164062 0.274902 -0.154541 
-0.163452 0.275879 -0.155151 
-0.162109 0.275879 -0.155151 
-0.160767 0.275879 -0.155151 
-0.159424 0.275879 -0.155151 
-0.158691 0.276855 -0.155762 
-0.157471 0.276855 -0.155762 
-0.156128 0.276855 -0.155762 
-0.154175 0.275879 -0.155151 
-0.152954 0.275879 -0.155151 
-0.151611 0.275879 -0.155151 
-0.150269 0.275879 -0.155151 
-0.148926 0.275879 -0.155151 
-0.147705 0.275879 -0.155151 
-0.146362 0.275879 -0.155151 
-0.14502 0.275879 -0.155151 
-0.143799 0.275879 -0.155151 
-0.142456 0.275879 -0.155151 
-0.141113 0.275879 -0.155151 
-0.139771 0.275879 -0.155151 
-0.13855 0.275879 -0.155151 
-0.137695 0.276855 -0.155762 
-0.135864 0.275879 -0.155151 
-0.134521 0.275879 -0.155151 
-0.133789 0.276855 -0.155762 
-0.132446 0.276855 -0.155762 
-0.131104 0.276855 -0.155762 
-0.129272 0.275879 -0.155151 
-0.128052 0.275879 -0.155151 
-0.126709 0.275879 -0.155151 
-0.125366 0.275879 -0.155151 
-0.124146 0.275879 -0.155151 
-0.122803 0.275879 -0.155151 
-0.121521 0.275879 -0.155151 
-0.120178 0.275879 -0.155151 
-0.118896 0.275879 -0.155151 
-0.117554 0.275879 -0.155151 
-0.116272 0.275879 -0.155151 
-0.114929 0.275879 -0.155151 
-0.113647 0.275879 -0.155151 
-0.112305 0.275879 -0.155151 
-0.111023 0.275879 -0.155151 
-0.10968 0.275879 -0.155151 
-0.108398 0.275879 -0.155151 
-0.107117 0.275879 -0.155151 
-0.105774 0.275879 -0.155151 
-0.104492 0.275879 -0.155151 
-0.103149 0.275879 -0.155151 
-0.101868 0.275879 -0.155151 
-0.100525 0.275879 -0.155151 
-0.09924319 0.275879 -0.155151 
-0.09790039 0.275879 -0.155151 
-0.09661869 0.275879 -0.155151 
-0.09527589 0.275879 -0.155151 
-0.09362789 0.274902 -0.154541 
-0.09234619 0.274902 -0.154541 
-0.0910034 0.274902 -0.154541 
-0.08972169 0.274902 -0.154541 
-0.08843989 0.274902 -0.154541 
-0.08709719 0.274902 -0.154541 
-0.08551029 0.273926 -0.154053 
-0.327637 1.41602 -0.795898 
-0.321289 1.41797 -0.7973629 
-0.315186 1.4209 -0.7988279 
-0.30957 1.42578 -0.8017579 
-0.303955 1.43066 -0.8046879 
-0.298096 1.43652 -0.8076169 
-0.292236 1.44043 -0.80957 
-0.285645 1.44141 -0.810059 
-0.278564 1.44043 -0.80957 
-0.270996 1.4375 -0.8081049 
-0.263184 1.43066 -0.8046879 
-0.255127 1.42383 -0.800781 
-0.24707 1.41602 -0.795898 
-0.239136 1.40918 -0.7919919 
-0.231079 1.40137 -0.787598 
-0.223633 1.39551 -0.784668 
-0.216187 1.39062 -0.7822269 
-0.208984 1.38672 -0.7797849 
-0.201904 1.38281 -0.7773439 
-0.194824 1.37988 -0.775879 
-0.187866 1.37695 -0.773926 
-0.181152 1.375 -0.7729489 
-0.174194 1.37207 -0.771484 
-0.167358 1.36914 -0.769531 
-0.1604 1.36621 -0.7680659 
-0.153687 1.36328 -0.7661129 
-0.146973 1.36035 -0.765137 
-0.140137 1.35742 -0.763184 
-0.133423 1.35449 -0.7617189 
-0.126831 1.35254 -0.7607419 
-0.1203 1.35156 -0.7597659 
-0.113892 1.35156 -0.7597659 
-0.107483 1.35156 -0.7597659 
-0.101074 1.35156 -0.7597659 
-0.09472659 1.35254 -0.7607419 
-0.08843989 1.35449 -0.7617189 
-0.08209229 1.35645 -0.762695 
-0.07586669 1.35938 -0.764648 
-0.06951899 1.36328 -0.7661129 
-0.06329349 1.36816 -0.769043 
-0.05703739 1.37305 -0.771973 
-0.0507507 1.37891 -0.7753909 
-0.0444641 1.38672 -0.7797849 
-0.0380859 1.39453 -0.7841799 
-0.03164669 1.40332 -0.7885739 
-0.0251312 1.41113 -0.7934569 
-0.0185394 1.41895 -0.7978519 
-0.0118561 1.4248 -0.8012699 
-0.00511169 1.42969 -0.8041989 
0.00168324 1.43555 -0.8066409 
0.008514399 1.43848 -0.8085939 
0.0153732 1.44141 -0.810059 
0.0222626 1.44434 -0.812012 
0.0291901 1.44824 -0.813965 
0.0361328 1.45117 -0.815918 
0.0431213 1.4541 -0.8173829 
0.05017089 1.45801 -0.8198239 
0.057251 1.46191 -0.8222659 
0.0644531 1.46777 -0.825684 
0.07171629 1.47461 -0.8286129 
0.07904049 1.48145 -0.8330079 
0.08636469 1.48633 -0.8354489 
0.09368899 1.49023 -0.8378909 
0.100891 1.49219 -0.8388669 
0.108093 1.49316 -0.8393549 
0.115173 1.49316 -0.8393549 
0.122192 1.49219 -0.8388669 
0.129272 1.49219 -0.8388669 
0.13623 1.49121 -0.838379 
0.143311 1.49121 -0.838379 
0.150391 1.49121 -0.838379 
0.157471 1.49121 -0.838379 
0.164551 1.49121 -0.838379 
0.171753 1.49219 -0.8388669 
0.178833 1.49219 -0.8388669 
0.185913 1.49219 -0.8388669 
0.192993 1.49219 -0.8388669 
0.199951 1.49121 -0.838379 
0.206909 1.49023 -0.8378909 
0.213623 1.48828 -0.8369139 
0.220459 1.48633 -0.8354489 
0.227173 1.48438 -0.834473 
0.233765 1.48145 -0.8330079 
0.240234 1.47852 -0.8310549 
0.246826 1.47559 -0.82959 
0.253418 1.47363 -0.8281249 
0.26001 1.47168 -0.827148 
0.266846 1.4707 -0.8266599 
0.273682 1.46973 -0.8261719 
0.280762 1.4707 -0.8266599 
0.287842 1.4707 -0.8266599 
0.295166 1.47266 -0.827637 
0.302246 1.47363 -0.8281249 
0.30957 1.47461 -0.8286129 
0.316895 1.47559 -0.82959 
