ply
format ascii 1.0
comment pointcloud saved from Realsense Viewer
element vertex 1793
property float32 x
property float32 y
property float32 z
end_header
6.51127 -25.785 -65.535 
6.68298 -25.785 -65.535 
6.85469 -25.785 -65.535 
7.02641 -25.785 -65.535 
7.19812 -25.785 -65.535 
7.36984 -25.785 -65.535 
7.54155 -25.785 -65.535 
7.71326 -25.785 -65.535 
-38.4777 -25.9567 -65.535 
-38.306 -25.9567 -65.535 
-38.1343 -25.9567 -65.535 
-37.9626 -25.9567 -65.535 
-37.7908 -25.9567 -65.535 
-37.6191 -25.9567 -65.535 
-37.4474 -25.9567 -65.535 
-37.2757 -25.9567 -65.535 
-37.104 -25.9567 -65.535 
-36.9323 -25.9567 -65.535 
-36.7606 -25.9567 -65.535 
-36.5888 -25.9567 -65.535 
-36.4171 -25.9567 -65.535 
-36.2454 -25.9567 -65.535 
-36.0737 -25.9567 -65.535 
-35.902 -25.9567 -65.535 
-35.7303 -25.9567 -65.535 
-35.5586 -25.9567 -65.535 
-35.3869 -25.9567 -65.535 
-35.2151 -25.9567 -65.535 
-35.0434 -25.9567 -65.535 
-34.8717 -25.9567 -65.535 
-34.7 -25.9567 -65.535 
-34.5283 -25.9567 -65.535 
-34.3566 -25.9567 -65.535 
-34.1849 -25.9567 -65.535 
-34.0131 -25.9567 -65.535 
-33.8414 -25.9567 -65.535 
-33.6697 -25.9567 -65.535 
-33.498 -25.9567 -65.535 
-33.3263 -25.9567 -65.535 
-33.1546 -25.9567 -65.535 
-32.9829 -25.9567 -65.535 
-32.8111 -25.9567 -65.535 
-32.6394 -25.9567 -65.535 
-32.4677 -25.9567 -65.535 
-32.296 -25.9567 -65.535 
-14.2661 -25.9567 -65.535 
-14.0944 -25.9567 -65.535 
-13.9227 -25.9567 -65.535 
-11.5187 -25.9567 -65.535 
-11.3469 -25.9567 -65.535 
-7.39754 -25.9567 -65.535 
-7.22582 -25.9567 -65.535 
-7.05411 -25.9567 -65.535 
-6.88239 -25.9567 -65.535 
-6.71068 -25.9567 -65.535 
-6.53897 -25.9567 -65.535 
-6.36725 -25.9567 -65.535 
-6.19554 -25.9567 -65.535 
-6.02383 -25.9567 -65.535 
-5.85211 -25.9567 -65.535 
-5.6804 -25.9567 -65.535 
-5.50869 -25.9567 -65.535 
-5.33697 -25.9567 -65.535 
-5.16526 -25.9567 -65.535 
-4.99355 -25.9567 -65.535 
-4.82183 -25.9567 -65.535 
-4.65012 -25.9567 -65.535 
-4.4784 -25.9567 -65.535 
-4.30669 -25.9567 -65.535 
-4.13498 -25.9567 -65.535 
-3.96326 -25.9567 -65.535 
-3.79155 -25.9567 -65.535 
-3.61984 -25.9567 -65.535 
-3.44812 -25.9567 -65.535 
-3.27641 -25.9567 -65.535 
-3.1047 -25.9567 -65.535 
-2.93298 -25.9567 -65.535 
-2.76127 -25.9567 -65.535 
-2.58955 -25.9567 -65.535 
-2.41784 -25.9567 -65.535 
-2.24613 -25.9567 -65.535 
-2.07441 -25.9567 -65.535 
-1.9027 -25.9567 -65.535 
-1.73099 -25.9567 -65.535 
-1.55927 -25.9567 -65.535 
-1.38756 -25.9567 -65.535 
-1.21585 -25.9567 -65.535 
-1.04413 -25.9567 -65.535 
-0.872418 -25.9567 -65.535 
-0.700705 -25.9567 -65.535 
-0.528991 -25.9567 -65.535 
-0.357277 -25.9567 -65.535 
-0.185564 -25.9567 -65.535 
-0.0138501 -25.9567 -65.535 
0.157864 -25.9567 -65.535 
0.329577 -25.9567 -65.535 
0.501291 -25.9567 -65.535 
0.673004 -25.9567 -65.535 
0.844718 -25.9567 -65.535 
1.01643 -25.9567 -65.535 
1.18815 -25.9567 -65.535 
1.35986 -25.9567 -65.535 
1.53157 -25.9567 -65.535 
1.70329 -25.9567 -65.535 
1.875 -25.9567 -65.535 
2.04671 -25.9567 -65.535 
2.21843 -25.9567 -65.535 
2.39014 -25.9567 -65.535 
2.56185 -25.9567 -65.535 
2.73357 -25.9567 -65.535 
2.90528 -25.9567 -65.535 
3.07699 -25.9567 -65.535 
3.24871 -25.9567 -65.535 
3.42042 -25.9567 -65.535 
3.59214 -25.9567 -65.535 
3.76385 -25.9567 -65.535 
3.93556 -25.9567 -65.535 
4.10728 -25.9567 -65.535 
4.27899 -25.9567 -65.535 
4.4507 -25.9567 -65.535 
4.62242 -25.9567 -65.535 
4.79413 -25.9567 -65.535 
4.96585 -25.9567 -65.535 
5.13756 -25.9567 -65.535 
5.30927 -25.9567 -65.535 
5.48099 -25.9567 -65.535 
5.6527 -25.9567 -65.535 
5.82441 -25.9567 -65.535 
5.99613 -25.9567 -65.535 
6.16784 -25.9567 -65.535 
6.33955 -25.9567 -65.535 
6.51127 -25.9567 -65.535 
6.68298 -25.9567 -65.535 
6.85469 -25.9567 -65.535 
7.02641 -25.9567 -65.535 
7.19812 -25.9567 -65.535 
7.36984 -25.9567 -65.535 
7.54155 -25.9567 -65.535 
7.71326 -25.9567 -65.535 
-38.4777 -26.1284 -65.535 
-38.306 -26.1284 -65.535 
-38.1343 -26.1284 -65.535 
-37.9626 -26.1284 -65.535 
-37.7908 -26.1284 -65.535 
-37.6191 -26.1284 -65.535 
-37.4474 -26.1284 -65.535 
-37.2757 -26.1284 -65.535 
-37.104 -26.1284 -65.535 
-36.9323 -26.1284 -65.535 
-36.7606 -26.1284 -65.535 
-36.5888 -26.1284 -65.535 
-36.4171 -26.1284 -65.535 
-36.2454 -26.1284 -65.535 
-36.0737 -26.1284 -65.535 
-35.902 -26.1284 -65.535 
-35.7303 -26.1284 -65.535 
-35.5586 -26.1284 -65.535 
-35.3869 -26.1284 -65.535 
-35.2151 -26.1284 -65.535 
-35.0434 -26.1284 -65.535 
-34.8717 -26.1284 -65.535 
-34.7 -26.1284 -65.535 
-34.5283 -26.1284 -65.535 
-34.3566 -26.1284 -65.535 
-34.1849 -26.1284 -65.535 
-34.0131 -26.1284 -65.535 
-33.8414 -26.1284 -65.535 
-33.6697 -26.1284 -65.535 
-33.498 -26.1284 -65.535 
-33.3263 -26.1284 -65.535 
-33.1546 -26.1284 -65.535 
-32.9829 -26.1284 -65.535 
-32.8111 -26.1284 -65.535 
-32.6394 -26.1284 -65.535 
-32.4677 -26.1284 -65.535 
-32.296 -26.1284 -65.535 
-13.9227 -26.1284 -65.535 
-13.7509 -26.1284 -65.535 
-13.5792 -26.1284 -65.535 
-13.4075 -26.1284 -65.535 
-13.2358 -26.1284 -65.535 
-13.0641 -26.1284 -65.535 
-12.8924 -26.1284 -65.535 
-12.7207 -26.1284 -65.535 
-12.5489 -26.1284 -65.535 
-12.3772 -26.1284 -65.535 
-12.2055 -26.1284 -65.535 
-12.0338 -26.1284 -65.535 
-8.59953 -26.1284 -65.535 
-8.2561 -26.1284 -65.535 
-8.08439 -26.1284 -65.535 
-7.91268 -26.1284 -65.535 
-7.74096 -26.1284 -65.535 
-7.56925 -26.1284 -65.535 
-7.39754 -26.1284 -65.535 
-7.22582 -26.1284 -65.535 
-7.05411 -26.1284 -65.535 
-6.88239 -26.1284 -65.535 
-6.71068 -26.1284 -65.535 
-6.53897 -26.1284 -65.535 
-6.36725 -26.1284 -65.535 
-6.19554 -26.1284 -65.535 
-6.02383 -26.1284 -65.535 
-5.85211 -26.1284 -65.535 
-5.6804 -26.1284 -65.535 
-5.50869 -26.1284 -65.535 
-5.33697 -26.1284 -65.535 
-5.16526 -26.1284 -65.535 
-4.99355 -26.1284 -65.535 
-4.82183 -26.1284 -65.535 
-4.65012 -26.1284 -65.535 
-4.4784 -26.1284 -65.535 
-4.30669 -26.1284 -65.535 
-4.13498 -26.1284 -65.535 
-3.96326 -26.1284 -65.535 
-3.79155 -26.1284 -65.535 
-3.61984 -26.1284 -65.535 
-3.44812 -26.1284 -65.535 
-3.27641 -26.1284 -65.535 
-3.1047 -26.1284 -65.535 
-2.93298 -26.1284 -65.535 
-2.76127 -26.1284 -65.535 
-2.58955 -26.1284 -65.535 
-2.41784 -26.1284 -65.535 
-2.24613 -26.1284 -65.535 
-2.07441 -26.1284 -65.535 
-1.9027 -26.1284 -65.535 
-1.73099 -26.1284 -65.535 
-1.55927 -26.1284 -65.535 
-1.38756 -26.1284 -65.535 
-1.21585 -26.1284 -65.535 
-1.04413 -26.1284 -65.535 
-0.872418 -26.1284 -65.535 
-0.700705 -26.1284 -65.535 
-0.528991 -26.1284 -65.535 
-0.357277 -26.1284 -65.535 
-0.185564 -26.1284 -65.535 
-0.0138501 -26.1284 -65.535 
0.157864 -26.1284 -65.535 
0.329577 -26.1284 -65.535 
0.501291 -26.1284 -65.535 
0.673004 -26.1284 -65.535 
0.844718 -26.1284 -65.535 
1.01643 -26.1284 -65.535 
1.18815 -26.1284 -65.535 
1.35986 -26.1284 -65.535 
1.53157 -26.1284 -65.535 
1.70329 -26.1284 -65.535 
1.875 -26.1284 -65.535 
2.04671 -26.1284 -65.535 
2.21843 -26.1284 -65.535 
2.39014 -26.1284 -65.535 
2.56185 -26.1284 -65.535 
2.73357 -26.1284 -65.535 
2.90528 -26.1284 -65.535 
3.07699 -26.1284 -65.535 
3.24871 -26.1284 -65.535 
3.42042 -26.1284 -65.535 
3.59214 -26.1284 -65.535 
3.76385 -26.1284 -65.535 
3.93556 -26.1284 -65.535 
4.10728 -26.1284 -65.535 
4.27899 -26.1284 -65.535 
4.4507 -26.1284 -65.535 
4.62242 -26.1284 -65.535 
4.79413 -26.1284 -65.535 
4.96585 -26.1284 -65.535 
5.13756 -26.1284 -65.535 
5.30927 -26.1284 -65.535 
5.48099 -26.1284 -65.535 
5.6527 -26.1284 -65.535 
5.82441 -26.1284 -65.535 
5.99613 -26.1284 -65.535 
6.16784 -26.1284 -65.535 
6.33955 -26.1284 -65.535 
6.51127 -26.1284 -65.535 
6.68298 -26.1284 -65.535 
6.85469 -26.1284 -65.535 
7.02641 -26.1284 -65.535 
7.19812 -26.1284 -65.535 
7.36984 -26.1284 -65.535 
7.54155 -26.1284 -65.535 
7.71326 -26.1284 -65.535 
-38.4777 -26.3001 -65.535 
-38.306 -26.3001 -65.535 
-38.1343 -26.3001 -65.535 
-37.9626 -26.3001 -65.535 
-37.7908 -26.3001 -65.535 
-37.6191 -26.3001 -65.535 
-37.4474 -26.3001 -65.535 
-37.2757 -26.3001 -65.535 
-37.104 -26.3001 -65.535 
-36.9323 -26.3001 -65.535 
-36.7606 -26.3001 -65.535 
-36.5888 -26.3001 -65.535 
-36.4171 -26.3001 -65.535 
-36.2454 -26.3001 -65.535 
-36.0737 -26.3001 -65.535 
-35.902 -26.3001 -65.535 
-35.7303 -26.3001 -65.535 
-35.5586 -26.3001 -65.535 
-35.3869 -26.3001 -65.535 
-35.2151 -26.3001 -65.535 
-35.0434 -26.3001 -65.535 
-34.8717 -26.3001 -65.535 
-34.7 -26.3001 -65.535 
-34.5283 -26.3001 -65.535 
-34.3566 -26.3001 -65.535 
-34.1849 -26.3001 -65.535 
-34.0131 -26.3001 -65.535 
-33.8414 -26.3001 -65.535 
-33.6697 -26.3001 -65.535 
-33.498 -26.3001 -65.535 
-33.3263 -26.3001 -65.535 
-33.1546 -26.3001 -65.535 
-32.9829 -26.3001 -65.535 
-32.8111 -26.3001 -65.535 
-32.6394 -26.3001 -65.535 
-32.4677 -26.3001 -65.535 
-32.296 -26.3001 -65.535 
-8.08439 -26.3001 -65.535 
-7.91268 -26.3001 -65.535 
-7.74096 -26.3001 -65.535 
-7.56925 -26.3001 -65.535 
-7.39754 -26.3001 -65.535 
-7.22582 -26.3001 -65.535 
-7.05411 -26.3001 -65.535 
-6.88239 -26.3001 -65.535 
-6.71068 -26.3001 -65.535 
-6.53897 -26.3001 -65.535 
-6.36725 -26.3001 -65.535 
-6.19554 -26.3001 -65.535 
-6.02383 -26.3001 -65.535 
-5.85211 -26.3001 -65.535 
-5.6804 -26.3001 -65.535 
-5.50869 -26.3001 -65.535 
-5.33697 -26.3001 -65.535 
-5.16526 -26.3001 -65.535 
-4.99355 -26.3001 -65.535 
-4.82183 -26.3001 -65.535 
-4.65012 -26.3001 -65.535 
-4.4784 -26.3001 -65.535 
-4.30669 -26.3001 -65.535 
-4.13498 -26.3001 -65.535 
-3.96326 -26.3001 -65.535 
-3.79155 -26.3001 -65.535 
-3.61984 -26.3001 -65.535 
-3.44812 -26.3001 -65.535 
-3.27641 -26.3001 -65.535 
-3.1047 -26.3001 -65.535 
-2.93298 -26.3001 -65.535 
-2.76127 -26.3001 -65.535 
-2.58955 -26.3001 -65.535 
-2.41784 -26.3001 -65.535 
-2.24613 -26.3001 -65.535 
-2.07441 -26.3001 -65.535 
-1.9027 -26.3001 -65.535 
-1.73099 -26.3001 -65.535 
-1.55927 -26.3001 -65.535 
-1.38756 -26.3001 -65.535 
-1.21585 -26.3001 -65.535 
-1.04413 -26.3001 -65.535 
-0.872418 -26.3001 -65.535 
-0.700705 -26.3001 -65.535 
-0.528991 -26.3001 -65.535 
-0.357277 -26.3001 -65.535 
-0.185564 -26.3001 -65.535 
-0.0138501 -26.3001 -65.535 
0.157864 -26.3001 -65.535 
0.329577 -26.3001 -65.535 
0.501291 -26.3001 -65.535 
0.673004 -26.3001 -65.535 
0.844718 -26.3001 -65.535 
1.01643 -26.3001 -65.535 
1.18815 -26.3001 -65.535 
1.35986 -26.3001 -65.535 
1.53157 -26.3001 -65.535 
1.70329 -26.3001 -65.535 
1.875 -26.3001 -65.535 
2.04671 -26.3001 -65.535 
2.21843 -26.3001 -65.535 
2.39014 -26.3001 -65.535 
2.56185 -26.3001 -65.535 
2.73357 -26.3001 -65.535 
2.90528 -26.3001 -65.535 
3.07699 -26.3001 -65.535 
3.24871 -26.3001 -65.535 
3.42042 -26.3001 -65.535 
3.59214 -26.3001 -65.535 
3.76385 -26.3001 -65.535 
3.93556 -26.3001 -65.535 
4.10728 -26.3001 -65.535 
4.27899 -26.3001 -65.535 
4.4507 -26.3001 -65.535 
4.62242 -26.3001 -65.535 
4.79413 -26.3001 -65.535 
4.96585 -26.3001 -65.535 
5.13756 -26.3001 -65.535 
5.30927 -26.3001 -65.535 
5.48099 -26.3001 -65.535 
5.6527 -26.3001 -65.535 
5.82441 -26.3001 -65.535 
5.99613 -26.3001 -65.535 
6.16784 -26.3001 -65.535 
6.33955 -26.3001 -65.535 
6.51127 -26.3001 -65.535 
6.68298 -26.3001 -65.535 
6.85469 -26.3001 -65.535 
7.02641 -26.3001 -65.535 
7.19812 -26.3001 -65.535 
7.36984 -26.3001 -65.535 
7.54155 -26.3001 -65.535 
7.71326 -26.3001 -65.535 
0.195933 -0.207078 -0.516 
0.196903 -0.206677 -0.515 
-38.4777 -26.4718 -65.535 
-38.306 -26.4718 -65.535 
-38.1343 -26.4718 -65.535 
-37.9626 -26.4718 -65.535 
-37.7908 -26.4718 -65.535 
-37.6191 -26.4718 -65.535 
-37.4474 -26.4718 -65.535 
-37.2757 -26.4718 -65.535 
-37.104 -26.4718 -65.535 
-36.9323 -26.4718 -65.535 
-36.7606 -26.4718 -65.535 
-36.5888 -26.4718 -65.535 
-36.4171 -26.4718 -65.535 
-36.2454 -26.4718 -65.535 
-36.0737 -26.4718 -65.535 
-35.902 -26.4718 -65.535 
-35.7303 -26.4718 -65.535 
-35.5586 -26.4718 -65.535 
-35.3869 -26.4718 -65.535 
-35.2151 -26.4718 -65.535 
-35.0434 -26.4718 -65.535 
-34.8717 -26.4718 -65.535 
-34.7 -26.4718 -65.535 
-34.5283 -26.4718 -65.535 
-34.3566 -26.4718 -65.535 
-34.1849 -26.4718 -65.535 
-34.0131 -26.4718 -65.535 
-33.8414 -26.4718 -65.535 
-33.6697 -26.4718 -65.535 
-33.498 -26.4718 -65.535 
-33.3263 -26.4718 -65.535 
-33.1546 -26.4718 -65.535 
-7.39754 -26.4718 -65.535 
-7.22582 -26.4718 -65.535 
-7.05411 -26.4718 -65.535 
-6.88239 -26.4718 -65.535 
-6.71068 -26.4718 -65.535 
-6.53897 -26.4718 -65.535 
-6.36725 -26.4718 -65.535 
-6.19554 -26.4718 -65.535 
-6.02383 -26.4718 -65.535 
-5.85211 -26.4718 -65.535 
-5.6804 -26.4718 -65.535 
-5.50869 -26.4718 -65.535 
-5.33697 -26.4718 -65.535 
-5.16526 -26.4718 -65.535 
-4.99355 -26.4718 -65.535 
-4.82183 -26.4718 -65.535 
-4.65012 -26.4718 -65.535 
-4.4784 -26.4718 -65.535 
-4.30669 -26.4718 -65.535 
-4.13498 -26.4718 -65.535 
-3.96326 -26.4718 -65.535 
-3.79155 -26.4718 -65.535 
-3.61984 -26.4718 -65.535 
-3.44812 -26.4718 -65.535 
-3.27641 -26.4718 -65.535 
-3.1047 -26.4718 -65.535 
-2.93298 -26.4718 -65.535 
-2.76127 -26.4718 -65.535 
-2.58955 -26.4718 -65.535 
-2.41784 -26.4718 -65.535 
-2.24613 -26.4718 -65.535 
-2.07441 -26.4718 -65.535 
-1.9027 -26.4718 -65.535 
-1.73099 -26.4718 -65.535 
-1.55927 -26.4718 -65.535 
-1.38756 -26.4718 -65.535 
-1.21585 -26.4718 -65.535 
-1.04413 -26.4718 -65.535 
-0.872418 -26.4718 -65.535 
-0.700705 -26.4718 -65.535 
-0.528991 -26.4718 -65.535 
-0.357277 -26.4718 -65.535 
-0.185564 -26.4718 -65.535 
-0.0138501 -26.4718 -65.535 
0.157864 -26.4718 -65.535 
0.329577 -26.4718 -65.535 
0.501291 -26.4718 -65.535 
0.673004 -26.4718 -65.535 
0.844718 -26.4718 -65.535 
1.01643 -26.4718 -65.535 
1.18815 -26.4718 -65.535 
1.35986 -26.4718 -65.535 
1.53157 -26.4718 -65.535 
1.70329 -26.4718 -65.535 
1.875 -26.4718 -65.535 
2.04671 -26.4718 -65.535 
2.21843 -26.4718 -65.535 
2.39014 -26.4718 -65.535 
2.56185 -26.4718 -65.535 
2.73357 -26.4718 -65.535 
2.90528 -26.4718 -65.535 
3.07699 -26.4718 -65.535 
3.24871 -26.4718 -65.535 
3.42042 -26.4718 -65.535 
3.59214 -26.4718 -65.535 
3.76385 -26.4718 -65.535 
3.93556 -26.4718 -65.535 
4.10728 -26.4718 -65.535 
4.27899 -26.4718 -65.535 
4.4507 -26.4718 -65.535 
4.62242 -26.4718 -65.535 
4.79413 -26.4718 -65.535 
4.96585 -26.4718 -65.535 
5.13756 -26.4718 -65.535 
5.30927 -26.4718 -65.535 
5.48099 -26.4718 -65.535 
5.6527 -26.4718 -65.535 
5.82441 -26.4718 -65.535 
5.99613 -26.4718 -65.535 
6.16784 -26.4718 -65.535 
6.33955 -26.4718 -65.535 
6.51127 -26.4718 -65.535 
6.68298 -26.4718 -65.535 
6.85469 -26.4718 -65.535 
7.02641 -26.4718 -65.535 
7.19812 -26.4718 -65.535 
7.36984 -26.4718 -65.535 
7.54155 -26.4718 -65.535 
0.196313 -0.208834 -0.517 
0.197285 -0.20843 -0.516 
0.198252 -0.208026 -0.515 
0.200729 -0.20641 -0.511 
-6.71068 -26.6436 -65.535 
-6.53897 -26.6436 -65.535 
-6.36725 -26.6436 -65.535 
-6.19554 -26.6436 -65.535 
-6.02383 -26.6436 -65.535 
-5.85211 -26.6436 -65.535 
-5.6804 -26.6436 -65.535 
-5.50869 -26.6436 -65.535 
-5.33697 -26.6436 -65.535 
-5.16526 -26.6436 -65.535 
-4.99355 -26.6436 -65.535 
-4.82183 -26.6436 -65.535 
-4.65012 -26.6436 -65.535 
-4.4784 -26.6436 -65.535 
-4.30669 -26.6436 -65.535 
-4.13498 -26.6436 -65.535 
-3.96326 -26.6436 -65.535 
-3.79155 -26.6436 -65.535 
-3.61984 -26.6436 -65.535 
-3.44812 -26.6436 -65.535 
-3.27641 -26.6436 -65.535 
-3.1047 -26.6436 -65.535 
-2.93298 -26.6436 -65.535 
-2.76127 -26.6436 -65.535 
-2.58955 -26.6436 -65.535 
-2.41784 -26.6436 -65.535 
-2.24613 -26.6436 -65.535 
-2.07441 -26.6436 -65.535 
-1.9027 -26.6436 -65.535 
-1.73099 -26.6436 -65.535 
-1.55927 -26.6436 -65.535 
-1.38756 -26.6436 -65.535 
-1.21585 -26.6436 -65.535 
-1.04413 -26.6436 -65.535 
-0.872418 -26.6436 -65.535 
-0.700705 -26.6436 -65.535 
-0.528991 -26.6436 -65.535 
-0.357277 -26.6436 -65.535 
-0.185564 -26.6436 -65.535 
-0.0138501 -26.6436 -65.535 
0.157864 -26.6436 -65.535 
0.329577 -26.6436 -65.535 
0.501291 -26.6436 -65.535 
0.673004 -26.6436 -65.535 
0.844718 -26.6436 -65.535 
1.01643 -26.6436 -65.535 
1.18815 -26.6436 -65.535 
1.35986 -26.6436 -65.535 
1.53157 -26.6436 -65.535 
1.70329 -26.6436 -65.535 
1.875 -26.6436 -65.535 
2.04671 -26.6436 -65.535 
2.21843 -26.6436 -65.535 
2.39014 -26.6436 -65.535 
2.56185 -26.6436 -65.535 
2.73357 -26.6436 -65.535 
2.90528 -26.6436 -65.535 
3.07699 -26.6436 -65.535 
3.24871 -26.6436 -65.535 
3.42042 -26.6436 -65.535 
3.59214 -26.6436 -65.535 
3.76385 -26.6436 -65.535 
3.93556 -26.6436 -65.535 
4.10728 -26.6436 -65.535 
4.27899 -26.6436 -65.535 
4.4507 -26.6436 -65.535 
4.62242 -26.6436 -65.535 
4.79413 -26.6436 -65.535 
4.96585 -26.6436 -65.535 
5.13756 -26.6436 -65.535 
5.30927 -26.6436 -65.535 
5.48099 -26.6436 -65.535 
5.6527 -26.6436 -65.535 
5.82441 -26.6436 -65.535 
5.99613 -26.6436 -65.535 
6.16784 -26.6436 -65.535 
6.33955 -26.6436 -65.535 
6.51127 -26.6436 -65.535 
6.68298 -26.6436 -65.535 
0.193696 -0.217913 -0.536 
0.194737 -0.217507 -0.535 
0.195405 -0.216694 -0.533 
0.196466 -0.211815 -0.521 
0.197072 -0.211002 -0.519 
0.197285 -0.209782 -0.516 
0.198252 -0.209376 -0.515 
0.198826 -0.208562 -0.513 
0.20017 -0.208562 -0.513 
0.200729 -0.207749 -0.511 
0.202213 -0.20653 -0.508 
-6.71068 -26.8153 -65.535 
-6.53897 -26.8153 -65.535 
-6.36725 -26.8153 -65.535 
-6.19554 -26.8153 -65.535 
-6.02383 -26.8153 -65.535 
-5.85211 -26.8153 -65.535 
-5.6804 -26.8153 -65.535 
-5.50869 -26.8153 -65.535 
-5.33697 -26.8153 -65.535 
-5.16526 -26.8153 -65.535 
-4.99355 -26.8153 -65.535 
-4.82183 -26.8153 -65.535 
-4.65012 -26.8153 -65.535 
-4.4784 -26.8153 -65.535 
-4.30669 -26.8153 -65.535 
-4.13498 -26.8153 -65.535 
-3.96326 -26.8153 -65.535 
-3.79155 -26.8153 -65.535 
-3.61984 -26.8153 -65.535 
-3.44812 -26.8153 -65.535 
-3.27641 -26.8153 -65.535 
-3.1047 -26.8153 -65.535 
-2.93298 -26.8153 -65.535 
-2.76127 -26.8153 -65.535 
-2.58955 -26.8153 -65.535 
-2.41784 -26.8153 -65.535 
-2.24613 -26.8153 -65.535 
-2.07441 -26.8153 -65.535 
-1.9027 -26.8153 -65.535 
-1.73099 -26.8153 -65.535 
-1.55927 -26.8153 -65.535 
-1.38756 -26.8153 -65.535 
-1.21585 -26.8153 -65.535 
-1.04413 -26.8153 -65.535 
-0.872418 -26.8153 -65.535 
-0.700705 -26.8153 -65.535 
-0.528991 -26.8153 -65.535 
-0.357277 -26.8153 -65.535 
-0.185564 -26.8153 -65.535 
-0.0138501 -26.8153 -65.535 
0.157864 -26.8153 -65.535 
0.329577 -26.8153 -65.535 
0.501291 -26.8153 -65.535 
0.673004 -26.8153 -65.535 
0.844718 -26.8153 -65.535 
1.01643 -26.8153 -65.535 
1.18815 -26.8153 -65.535 
1.35986 -26.8153 -65.535 
1.53157 -26.8153 -65.535 
1.70329 -26.8153 -65.535 
1.875 -26.8153 -65.535 
2.04671 -26.8153 -65.535 
2.21843 -26.8153 -65.535 
2.39014 -26.8153 -65.535 
2.56185 -26.8153 -65.535 
2.73357 -26.8153 -65.535 
2.90528 -26.8153 -65.535 
3.07699 -26.8153 -65.535 
3.24871 -26.8153 -65.535 
3.42042 -26.8153 -65.535 
3.59214 -26.8153 -65.535 
3.76385 -26.8153 -65.535 
3.93556 -26.8153 -65.535 
4.10728 -26.8153 -65.535 
4.27899 -26.8153 -65.535 
4.4507 -26.8153 -65.535 
4.62242 -26.8153 -65.535 
4.79413 -26.8153 -65.535 
4.96585 -26.8153 -65.535 
5.13756 -26.8153 -65.535 
5.30927 -26.8153 -65.535 
5.48099 -26.8153 -65.535 
5.6527 -26.8153 -65.535 
5.82441 -26.8153 -65.535 
5.99613 -26.8153 -65.535 
6.16784 -26.8153 -65.535 
0.192651 -0.219727 -0.537 
0.194058 -0.219727 -0.537 
0.194737 -0.218909 -0.535 
0.195772 -0.218499 -0.534 
0.197072 -0.212362 -0.519 
0.197667 -0.211543 -0.517 
0.198637 -0.211134 -0.516 
0.199214 -0.210316 -0.514 
0.20017 -0.209907 -0.513 
0.201122 -0.209497 -0.512 
0.201672 -0.208679 -0.51 
0.202611 -0.20827 -0.509 
0.1916 -0.221546 -0.538 
0.193009 -0.221546 -0.538 
0.194058 -0.221134 -0.537 
0.195101 -0.220722 -0.536 
0.195772 -0.219899 -0.534 
0.196063 -0.218663 -0.531 
0.196339 -0.217428 -0.528 
0.196599 -0.216192 -0.525 
0.196844 -0.214957 -0.522 
0.197452 -0.214133 -0.52 
0.19805 -0.21331 -0.518 
0.198637 -0.212486 -0.516 
0.199214 -0.211663 -0.514 
0.200561 -0.211663 -0.514 
0.201122 -0.210839 -0.512 
0.201672 -0.210015 -0.51 
0.203009 -0.210015 -0.51 
0.191956 -0.22337 -0.539 
0.193009 -0.222955 -0.538 
0.194058 -0.222541 -0.537 
0.195101 -0.222126 -0.536 
0.195772 -0.221298 -0.534 
0.196063 -0.220054 -0.531 
0.196711 -0.219226 -0.529 
0.196974 -0.217982 -0.526 
0.197221 -0.216739 -0.523 
0.197452 -0.215496 -0.52 
0.19805 -0.214667 -0.518 
0.198637 -0.213838 -0.516 
0.199214 -0.213009 -0.514 
0.20017 -0.212595 -0.513 
0.201122 -0.212181 -0.512 
0.202068 -0.211766 -0.511 
0.203009 -0.211352 -0.51 
0.191956 -0.224782 -0.539 
0.193009 -0.224365 -0.538 
0.194058 -0.223948 -0.537 
0.195101 -0.223531 -0.536 
0.195772 -0.222697 -0.534 
0.196433 -0.221863 -0.532 
0.197083 -0.221029 -0.53 
0.197348 -0.219778 -0.527 
0.197598 -0.218527 -0.524 
0.197832 -0.217275 -0.521 
0.198814 -0.216858 -0.52 
0.199407 -0.216024 -0.518 
0.199601 -0.214773 -0.515 
0.200561 -0.214356 -0.514 
0.201515 -0.213939 -0.513 
0.202068 -0.213105 -0.511 
0.203009 -0.212688 -0.51 
0.203544 -0.211854 -0.508 
0.204471 -0.211437 -0.507 
0.204988 -0.210603 -0.505 
0.205494 -0.209769 -0.503 
0.206401 -0.209352 -0.502 
0.206889 -0.208518 -0.5 
0.207366 -0.207684 -0.498 
0.208252 -0.207267 -0.497 
0.192312 -0.226614 -0.54 
0.193368 -0.226194 -0.539 
0.194419 -0.225775 -0.538 
0.195465 -0.225355 -0.537 
0.196139 -0.224516 -0.535 
0.197171 -0.224096 -0.534 
0.197827 -0.223257 -0.532 
0.198097 -0.221998 -0.529 
0.198352 -0.220739 -0.526 
0.198591 -0.21948 -0.523 
0.199197 -0.218641 -0.521 
0.199792 -0.217801 -0.519 
0.200377 -0.216962 -0.517 
0.200951 -0.216123 -0.515 
0.201515 -0.215283 -0.513 
0.202463 -0.214864 -0.512 
0.203009 -0.214024 -0.51 
0.203944 -0.213605 -0.509 
0.204471 -0.212765 -0.507 
0.204988 -0.211926 -0.505 
0.205494 -0.211087 -0.503 
0.206401 -0.210667 -0.502 
0.206889 -0.209828 -0.5 
0.207782 -0.209408 -0.499 
0.208671 -0.208988 -0.498 
0.209132 -0.208149 -0.496 
0.210432 -0.208149 -0.496 
0.191604 -0.228873 -0.542 
0.192668 -0.228451 -0.541 
0.194086 -0.228451 -0.541 
0.19478 -0.227607 -0.539 
0.195829 -0.227184 -0.538 
0.196505 -0.22634 -0.536 
0.19754 -0.225917 -0.535 
0.198198 -0.225073 -0.533 
0.198472 -0.223806 -0.53 
0.199106 -0.222962 -0.528 
0.19935 -0.221695 -0.525 
0.199579 -0.220428 -0.522 
0.200177 -0.219583 -0.52 
0.200764 -0.218739 -0.518 
0.201341 -0.217894 -0.516 
0.201907 -0.21705 -0.514 
0.202463 -0.216205 -0.512 
0.203009 -0.215361 -0.51 
0.203944 -0.214938 -0.509 
0.204471 -0.214094 -0.507 
0.204988 -0.213249 -0.505 
0.205903 -0.212827 -0.504 
0.206401 -0.211982 -0.502 
0.206889 -0.211138 -0.5 
0.207782 -0.210716 -0.499 
0.208671 -0.210293 -0.498 
0.209132 -0.209449 -0.496 
0.210432 -0.209449 -0.496 
0.194444 -0.230294 -0.542 
0.195503 -0.229869 -0.541 
0.196193 -0.229019 -0.539 
0.197238 -0.228594 -0.538 
0.19791 -0.227744 -0.536 
0.19857 -0.226894 -0.534 
0.199221 -0.226045 -0.532 
0.199483 -0.22477 -0.529 
0.19973 -0.223495 -0.526 
0.199961 -0.222221 -0.523 
0.200562 -0.221371 -0.521 
0.201152 -0.220521 -0.519 
0.201731 -0.219671 -0.517 
0.2023 -0.218821 -0.515 
0.202859 -0.217972 -0.513 
0.203407 -0.217122 -0.511 
0.204345 -0.216697 -0.51 
0.204471 -0.215422 -0.507 
0.205394 -0.214997 -0.506 
0.205903 -0.214147 -0.504 
0.206401 -0.213298 -0.502 
0.207302 -0.212873 -0.501 
0.207782 -0.212023 -0.499 
0.208671 -0.211598 -0.498 
0.209132 -0.210748 -0.496 
0.210432 -0.210748 -0.496 
0.196226 -0.232141 -0.543 
0.196921 -0.231286 -0.541 
0.197605 -0.230431 -0.539 
0.198279 -0.229576 -0.537 
0.198942 -0.228721 -0.535 
0.199221 -0.227439 -0.532 
0.19986 -0.226583 -0.53 
0.20011 -0.225301 -0.527 
0.200344 -0.224018 -0.524 
0.200947 -0.223163 -0.522 
0.201539 -0.222308 -0.52 
0.202121 -0.221453 -0.518 
0.2023 -0.220171 -0.515 
0.202859 -0.219316 -0.513 
0.203805 -0.218888 -0.512 
0.204345 -0.218033 -0.51 
0.204875 -0.217178 -0.508 
0.205394 -0.216323 -0.506 
0.205903 -0.215468 -0.504 
0.206401 -0.214613 -0.502 
0.207302 -0.214186 -0.501 
0.207782 -0.21333 -0.499 
0.208671 -0.212903 -0.498 
0.209554 -0.212475 -0.497 
0.210432 -0.212048 -0.496 
0.210878 -0.211193 -0.494 
0.212172 -0.211193 -0.494 
0.195517 -0.236145 -0.549 
0.196238 -0.235285 -0.547 
0.196949 -0.234424 -0.545 
0.197649 -0.233564 -0.543 
0.198338 -0.232704 -0.541 
0.199017 -0.231843 -0.539 
0.199314 -0.230553 -0.536 
0.199969 -0.229693 -0.534 
0.200237 -0.228402 -0.531 
0.20049 -0.227112 -0.528 
0.201108 -0.226252 -0.526 
0.201332 -0.224961 -0.523 
0.201927 -0.224101 -0.521 
0.202512 -0.223241 -0.519 
0.202693 -0.22195 -0.516 
0.203254 -0.22109 -0.514 
0.204203 -0.22066 -0.513 
0.204345 -0.219369 -0.51 
0.205278 -0.218939 -0.509 
0.2058 -0.218079 -0.507 
0.206311 -0.217219 -0.505 
0.206812 -0.216359 -0.503 
0.207302 -0.215498 -0.501 
0.208199 -0.215068 -0.5 
0.208671 -0.214208 -0.498 
0.209554 -0.213778 -0.497 
0.210432 -0.213348 -0.496 
0.211305 -0.212917 -0.495 
0.212602 -0.211627 -0.492 
0.195493 -0.239314 -0.553 
0.196229 -0.238449 -0.551 
0.196956 -0.237583 -0.549 
0.197671 -0.236718 -0.547 
0.198013 -0.235419 -0.544 
0.198705 -0.234554 -0.542 
0.199387 -0.233688 -0.54 
0.199686 -0.23239 -0.537 
0.199969 -0.231092 -0.534 
0.200614 -0.230226 -0.532 
0.200869 -0.228928 -0.529 
0.201491 -0.228063 -0.527 
0.201717 -0.226764 -0.524 
0.202314 -0.225899 -0.522 
0.202512 -0.224601 -0.519 
0.203086 -0.223735 -0.517 
0.20365 -0.22287 -0.515 
0.204203 -0.222004 -0.513 
0.204746 -0.221139 -0.511 
0.205278 -0.220273 -0.509 
0.2058 -0.219407 -0.507 
0.206311 -0.218542 -0.505 
0.206812 -0.217676 -0.503 
0.207716 -0.217244 -0.502 
0.208199 -0.216378 -0.5 
0.20909 -0.215945 -0.499 
0.209554 -0.21508 -0.497 
0.210432 -0.214647 -0.496 
0.211305 -0.214214 -0.495 
0.212172 -0.213782 -0.494 
0.212602 -0.212916 -0.492 
0.213457 -0.212483 -0.491 
0.214306 -0.212051 -0.49 
0.21471 -0.211185 -0.488 
0.215546 -0.210752 -0.487 
0.216377 -0.21032 -0.486 
0.217202 -0.209887 -0.485 
0.195798 -0.24294 -0.558 
0.196553 -0.242069 -0.556 
0.197298 -0.241199 -0.554 
0.197673 -0.239892 -0.551 
0.198394 -0.239022 -0.549 
0.198741 -0.237716 -0.546 
0.199071 -0.236409 -0.543 
0.199756 -0.235539 -0.541 
0.200058 -0.234233 -0.538 
0.200344 -0.232926 -0.535 
0.200992 -0.232056 -0.533 
0.201249 -0.23075 -0.53 
0.201873 -0.229879 -0.528 
0.202102 -0.228573 -0.525 
0.202702 -0.227702 -0.523 
0.202902 -0.226396 -0.52 
0.203479 -0.225525 -0.518 
0.204045 -0.224654 -0.516 
0.204601 -0.223784 -0.514 
0.205146 -0.222913 -0.512 
0.205681 -0.222042 -0.51 
0.2058 -0.220736 -0.507 
0.20672 -0.220301 -0.506 
0.207223 -0.21943 -0.504 
0.20813 -0.218994 -0.503 
0.208615 -0.218124 -0.501 
0.209509 -0.217688 -0.5 
0.209976 -0.216818 -0.498 
0.210432 -0.215947 -0.496 
0.211732 -0.215947 -0.496 
0.212172 -0.215076 -0.494 
0.213034 -0.214641 -0.493 
0.213892 -0.214205 -0.492 
0.214306 -0.213335 -0.49 
0.21515 -0.212899 -0.489 
0.215546 -0.212028 -0.487 
0.216377 -0.211593 -0.486 
0.216754 -0.210722 -0.484 
0.217572 -0.210287 -0.483 
0.218385 -0.209852 -0.482 
0.219192 -0.209416 -0.481 
0.219994 -0.208981 -0.48 
0.195381 -0.245716 -0.561 
0.196149 -0.24484 -0.559 
0.196907 -0.243964 -0.557 
0.197654 -0.243088 -0.555 
0.198391 -0.242212 -0.553 
0.198756 -0.240898 -0.55 
0.199105 -0.239584 -0.547 
0.199438 -0.23827 -0.544 
0.200125 -0.237394 -0.542 
0.20043 -0.23608 -0.539 
0.200718 -0.234766 -0.536 
0.201369 -0.23389 -0.534 
0.201629 -0.232576 -0.531 
0.202255 -0.2317 -0.529 
0.202487 -0.230386 -0.526 
0.202702 -0.229072 -0.523 
0.203292 -0.228196 -0.521 
0.203871 -0.22732 -0.519 
0.204045 -0.226006 -0.516 
0.204601 -0.22513 -0.514 
0.205146 -0.224254 -0.512 
0.205681 -0.223378 -0.51 
0.206206 -0.222502 -0.508 
0.207128 -0.222064 -0.507 
0.207634 -0.221188 -0.505 
0.20813 -0.220312 -0.503 
0.209032 -0.219874 -0.502 
0.209509 -0.218998 -0.5 
0.209976 -0.218122 -0.498 
0.210856 -0.217684 -0.497 
0.211732 -0.217246 -0.496 
0.212172 -0.21637 -0.494 
0.213034 -0.215932 -0.493 
0.213892 -0.215494 -0.492 
0.214306 -0.214618 -0.49 
0.21515 -0.21418 -0.489 
0.215989 -0.213742 -0.488 
0.216377 -0.212866 -0.486 
0.217202 -0.212428 -0.485 
0.217572 -0.211552 -0.483 
0.218385 -0.211114 -0.482 
0.219192 -0.210676 -0.481 
0.219994 -0.210238 -0.48 
0.220791 -0.2098 -0.479 
0.221119 -0.208924 -0.477 
0.222212 -0.20761 -0.474 
-0.140591 -0.714681 -1.622 
-0.136677 -0.716443 -1.626 
0.194602 -0.248067 -0.563 
0.195381 -0.247186 -0.561 
0.1965 -0.246745 -0.56 
0.19726 -0.245864 -0.558 
0.197654 -0.244542 -0.555 
0.198391 -0.243661 -0.553 
0.199117 -0.24278 -0.551 
0.199469 -0.241458 -0.548 
0.199805 -0.240136 -0.545 
0.200125 -0.238814 -0.542 
0.200801 -0.237933 -0.54 
0.201093 -0.236611 -0.537 
0.201369 -0.235289 -0.534 
0.202008 -0.234408 -0.532 
0.202638 -0.233527 -0.53 
0.202871 -0.232205 -0.527 
0.20309 -0.230883 -0.524 
0.203682 -0.230002 -0.522 
0.204264 -0.229121 -0.52 
0.20444 -0.227799 -0.517 
0.205397 -0.227358 -0.516 
0.205547 -0.226036 -0.513 
0.206085 -0.225155 -0.511 
0.207018 -0.224715 -0.51 
0.207128 -0.223393 -0.507 
0.208046 -0.222952 -0.506 
0.208544 -0.222071 -0.504 
0.209032 -0.22119 -0.502 
0.209928 -0.220749 -0.501 
0.210819 -0.220308 -0.5 
0.211281 -0.219427 -0.498 
0.211732 -0.218546 -0.496 
0.212602 -0.218105 -0.495 
0.213467 -0.217665 -0.494 
0.213892 -0.216784 -0.492 
0.214743 -0.216343 -0.491 
0.21559 -0.215902 -0.49 
0.215989 -0.215021 -0.488 
0.216822 -0.21458 -0.487 
0.217202 -0.213699 -0.485 
0.217572 -0.212818 -0.483 
0.218385 -0.212377 -0.482 
0.219648 -0.212377 -0.482 
0.219994 -0.211496 -0.48 
0.220791 -0.211056 -0.479 
-0.148631 -0.716714 -1.617 
-0.144394 -0.716714 -1.617 
-0.140591 -0.718931 -1.622 
-0.136341 -0.718931 -1.622 
-0.131684 -0.716714 -1.617 
-0.122905 -0.714941 -1.613 
-0.118384 -0.713169 -1.609 
0.194948 -0.249986 -0.564 
0.195729 -0.249099 -0.562 
0.196851 -0.248656 -0.561 
0.197614 -0.24777 -0.559 
0.19801 -0.24644 -0.556 
0.198749 -0.245553 -0.554 
0.199117 -0.244224 -0.551 
0.199833 -0.243337 -0.549 
0.200171 -0.242007 -0.546 
0.200494 -0.240678 -0.543 
0.200801 -0.239348 -0.54 
0.201467 -0.238462 -0.538 
0.201746 -0.237132 -0.535 
0.202388 -0.236245 -0.533 
0.202638 -0.234916 -0.53 
0.203256 -0.234029 -0.528 
0.203477 -0.232699 -0.525 
0.204072 -0.231813 -0.523 
0.204264 -0.230483 -0.52 
0.204836 -0.229597 -0.518 
0.205795 -0.229154 -0.517 
0.206348 -0.228267 -0.515 
0.206891 -0.227381 -0.513 
0.207018 -0.226051 -0.51 
0.207945 -0.225608 -0.509 
0.208457 -0.224721 -0.507 
0.208958 -0.223835 -0.505 
0.209864 -0.223392 -0.504 
0.210347 -0.222505 -0.502 
0.210819 -0.221619 -0.5 
0.211281 -0.220732 -0.498 
0.212159 -0.220289 -0.497 
0.213031 -0.219846 -0.496 
0.213467 -0.218959 -0.494 
0.214326 -0.218516 -0.493 
0.214743 -0.217629 -0.491 
0.21559 -0.217186 -0.49 
0.215989 -0.2163 -0.488 
0.216822 -0.215856 -0.487 
0.217202 -0.21497 -0.485 
0.218023 -0.214527 -0.484 
0.218838 -0.214084 -0.483 
0.219648 -0.21364 -0.482 
0.220452 -0.213197 -0.481 
0.220791 -0.212311 -0.479 
0.221582 -0.211867 -0.478 
-0.15249 -0.719168 -1.613 
-0.148631 -0.720951 -1.617 
-0.144394 -0.720951 -1.617 
-0.140157 -0.720951 -1.617 
-0.13592 -0.720951 -1.617 
-0.131684 -0.720951 -1.617 
-0.127131 -0.719168 -1.613 
-0.122905 -0.719168 -1.613 
-0.118384 -0.717384 -1.609 
-0.114169 -0.717384 -1.609 
0.194499 -0.252801 -0.567 
0.195294 -0.251909 -0.565 
0.196078 -0.251018 -0.563 
0.197202 -0.250572 -0.562 
0.197967 -0.24968 -0.56 
0.198366 -0.248343 -0.557 
0.198749 -0.247005 -0.554 
0.199117 -0.245667 -0.551 
0.199833 -0.244776 -0.549 
0.200171 -0.243438 -0.546 
0.200494 -0.242101 -0.543 
0.201173 -0.241209 -0.541 
0.201467 -0.239871 -0.538 
0.201746 -0.238534 -0.535 
0.202388 -0.237642 -0.533 
0.20302 -0.23675 -0.531 
0.203641 -0.235859 -0.529 
0.203865 -0.234521 -0.526 
0.204463 -0.233629 -0.524 
0.20505 -0.232738 -0.522 
0.205627 -0.231846 -0.52 
0.206193 -0.230954 -0.518 
0.206749 -0.230062 -0.516 
0.207294 -0.229171 -0.514 
0.207829 -0.228279 -0.512 
0.208354 -0.227387 -0.51 
0.208868 -0.226496 -0.508 
0.209371 -0.225604 -0.506 
0.210281 -0.225158 -0.505 
0.210766 -0.224266 -0.503 
0.211241 -0.223375 -0.501 
0.212129 -0.222929 -0.5 
0.212585 -0.222037 -0.498 
0.213461 -0.221591 -0.497 
0.213899 -0.220699 -0.495 
0.214761 -0.220254 -0.494 
0.215181 -0.219362 -0.492 
0.21559 -0.21847 -0.49 
0.215989 -0.217578 -0.488 
0.216822 -0.217133 -0.487 
0.217202 -0.216241 -0.485 
0.218023 -0.215795 -0.484 
0.218838 -0.215349 -0.483 
0.219648 -0.214903 -0.482 
0.220452 -0.214457 -0.481 
0.221252 -0.214012 -0.48 
0.222046 -0.213566 -0.479 
0.222368 -0.212674 -0.477 
0.223149 -0.212228 -0.476 
0.223925 -0.211782 -0.475 
0.224696 -0.211336 -0.474 
0.225938 -0.211336 -0.474 
0.2267 -0.210891 -0.473 
0.227458 -0.210445 -0.472 
0.228695 -0.210445 -0.472 
-0.156716 -0.723394 -1.613 
-0.131684 -0.725188 -1.617 
-0.127131 -0.723394 -1.613 
-0.1226 -0.7216 -1.609 
-0.118384 -0.7216 -1.609 
-0.114169 -0.7216 -1.609 
-0.109953 -0.7216 -1.609 
0.194842 -0.254735 -0.568 
0.195639 -0.253838 -0.566 
0.196426 -0.252941 -0.564 
0.197202 -0.252044 -0.562 
0.197967 -0.251147 -0.56 
0.198366 -0.249802 -0.557 
0.198749 -0.248457 -0.554 
0.199117 -0.247111 -0.551 
0.199469 -0.245766 -0.548 
0.200171 -0.244869 -0.546 
0.200494 -0.243523 -0.543 
0.200801 -0.242178 -0.54 
0.201467 -0.241281 -0.538 
0.201746 -0.239935 -0.535 
0.202388 -0.239039 -0.533 
0.20302 -0.238142 -0.531 
0.203641 -0.237245 -0.529 
0.204252 -0.236348 -0.527 
0.204853 -0.235451 -0.525 
0.205443 -0.234554 -0.523 
0.206022 -0.233657 -0.521 
0.206591 -0.23276 -0.519 
0.20715 -0.231863 -0.517 
0.207698 -0.230966 -0.515 
0.208235 -0.230069 -0.513 
0.208762 -0.229172 -0.511 
0.209279 -0.228275 -0.509 
0.209785 -0.227378 -0.507 
0.210281 -0.226481 -0.505 
0.211185 -0.226033 -0.504 
0.211662 -0.225136 -0.502 
0.212129 -0.224239 -0.5 
0.213012 -0.22379 -0.499 
0.213461 -0.222893 -0.497 
0.214331 -0.222445 -0.496 
0.214761 -0.221548 -0.494 
0.215181 -0.220651 -0.492 
0.21603 -0.220202 -0.491 
0.216431 -0.219306 -0.489 
0.216822 -0.218409 -0.487 
0.21765 -0.21796 -0.486 
0.218023 -0.217063 -0.484 
0.218838 -0.216615 -0.483 
0.219648 -0.216166 -0.482 
0.220452 -0.215718 -0.481 
0.221252 -0.215269 -0.48 
0.222046 -0.214821 -0.479 
0.222835 -0.214372 -0.478 
0.223618 -0.213924 -0.477 
0.224397 -0.213475 -0.476 
0.22517 -0.213027 -0.475 
0.225938 -0.212578 -0.474 
0.2267 -0.21213 -0.473 
0.22794 -0.21213 -0.473 
0.228695 -0.211681 -0.472 
-0.160144 -0.724012 -1.605 
-0.135584 -0.72762 -1.613 
-0.131358 -0.72762 -1.613 
-0.126816 -0.725816 -1.609 
-0.1226 -0.725816 -1.609 
-0.118384 -0.725816 -1.609 
-0.114169 -0.725816 -1.609 
-0.109953 -0.725816 -1.609 
0.194035 -0.257126 -0.57 
0.195185 -0.256675 -0.569 
0.195639 -0.255321 -0.566 
0.196426 -0.254419 -0.564 
0.197553 -0.253968 -0.563 
0.197967 -0.252615 -0.56 
0.198366 -0.251261 -0.557 
0.198749 -0.249908 -0.554 
0.198756 -0.248104 -0.55 
0.199469 -0.247202 -0.548 
0.199805 -0.245848 -0.545 
0.200125 -0.244495 -0.542 
0.200801 -0.243593 -0.54 
0.201093 -0.242239 -0.537 
0.201746 -0.241337 -0.535 
0.202388 -0.240435 -0.533 
0.20302 -0.239533 -0.531 
0.203641 -0.238631 -0.529 
0.204252 -0.237728 -0.527 
0.204853 -0.236826 -0.525 
0.205443 -0.235924 -0.523 
0.206418 -0.235473 -0.522 
0.206989 -0.234571 -0.52 
0.20755 -0.233669 -0.518 
0.208101 -0.232766 -0.516 
0.208641 -0.231864 -0.514 
0.209171 -0.230962 -0.512 
0.20969 -0.23006 -0.51 
0.210199 -0.229158 -0.508 
0.210697 -0.228255 -0.506 
0.211604 -0.227804 -0.505 
0.212084 -0.226902 -0.503 
0.212978 -0.226451 -0.502 
0.213439 -0.225549 -0.5 
0.21389 -0.224647 -0.498 
0.214763 -0.224196 -0.497 
0.215196 -0.223293 -0.495 
0.215618 -0.222391 -0.493 
0.21647 -0.22194 -0.492 
0.216874 -0.221038 -0.49 
0.217267 -0.220136 -0.488 
0.218098 -0.219685 -0.487 
0.218473 -0.218782 -0.485 
0.219291 -0.218331 -0.484 
0.220103 -0.21788 -0.483 
0.22091 -0.217429 -0.482 
0.221252 -0.216527 -0.48 
0.222509 -0.216527 -0.48 
0.223301 -0.216076 -0.479 
0.223618 -0.215174 -0.477 
0.224397 -0.214722 -0.476 
0.22517 -0.214271 -0.475 
0.225938 -0.21382 -0.474 
0.2267 -0.213369 -0.473 
0.227458 -0.212918 -0.472 
0.22821 -0.212467 -0.471 
0.228957 -0.212016 -0.47 
0.230188 -0.212016 -0.47 
0.230928 -0.211565 -0.469 
-0.139117 -0.728217 -1.605 
-0.135248 -0.730032 -1.609 
-0.131032 -0.730032 -1.609 
-0.126816 -0.730032 -1.609 
-0.1226 -0.730032 -1.609 
-0.118384 -0.730032 -1.609 
-0.114169 -0.730032 -1.609 
-0.109953 -0.730032 -1.609 
0.194035 -0.258619 -0.57 
0.194842 -0.257712 -0.568 
0.195985 -0.257258 -0.567 
0.196426 -0.255897 -0.564 
0.197553 -0.255443 -0.563 
0.197967 -0.254082 -0.56 
0.198366 -0.252721 -0.557 
0.198391 -0.250906 -0.553 
0.198756 -0.249545 -0.55 
0.199105 -0.248184 -0.547 
0.199438 -0.246823 -0.544 
0.200125 -0.245915 -0.542 
0.20043 -0.244554 -0.539 
0.201093 -0.243646 -0.537 
0.201369 -0.242285 -0.534 
0.202388 -0.241832 -0.533 
0.20302 -0.240924 -0.531 
0.203641 -0.240017 -0.529 
0.20464 -0.239563 -0.528 
0.205243 -0.238656 -0.526 
0.205836 -0.237748 -0.524 
0.206813 -0.237294 -0.523 
0.207387 -0.236387 -0.521 
0.207951 -0.23548 -0.519 
0.208504 -0.234572 -0.517 
0.209453 -0.234118 -0.516 
0.209579 -0.232757 -0.513 
0.210101 -0.23185 -0.511 
0.211026 -0.231396 -0.51 
0.21153 -0.230489 -0.508 
0.212023 -0.229581 -0.506 
0.212927 -0.229127 -0.505 
0.212978 -0.227766 -0.502 
0.213866 -0.227313 -0.501 
0.21432 -0.226405 -0.499 
0.215195 -0.225951 -0.498 
0.21563 -0.225044 -0.496 
0.216055 -0.224137 -0.494 
0.21647 -0.223229 -0.492 
0.216874 -0.222322 -0.49 
0.217712 -0.221868 -0.489 
0.218098 -0.220961 -0.487 
0.218924 -0.220507 -0.486 
0.219744 -0.220053 -0.485 
0.220103 -0.219146 -0.483 
0.22091 -0.218692 -0.482 
0.221712 -0.218238 -0.481 
0.222509 -0.217785 -0.48 
0.223301 -0.217331 -0.479 
0.223618 -0.216423 -0.477 
0.224397 -0.21597 -0.476 
0.225644 -0.21597 -0.476 
0.226414 -0.215516 -0.475 
0.22718 -0.215062 -0.474 
0.227458 -0.214155 -0.472 
0.228695 -0.214155 -0.472 
0.229444 -0.213701 -0.471 
0.230188 -0.213247 -0.47 
0.230928 -0.212794 -0.469 
0.231661 -0.21234 -0.468 
-0.13877 -0.730597 -1.601 
-0.134912 -0.732423 -1.605 
-0.131032 -0.734248 -1.609 
-0.126501 -0.732423 -1.605 
-0.122296 -0.732423 -1.605 
-0.118384 -0.734248 -1.609 
-0.114169 -0.734248 -1.609 
-0.109953 -0.734248 -1.609 
0.194842 -0.2592 -0.568 
0.195639 -0.258287 -0.566 
0.196426 -0.257375 -0.564 
0.197202 -0.256462 -0.562 
0.197967 -0.255549 -0.56 
0.19801 -0.253724 -0.556 
0.198032 -0.251899 -0.552 
0.198394 -0.25053 -0.549 
0.198741 -0.249161 -0.546 
0.199071 -0.247792 -0.543 
0.199756 -0.246879 -0.541 
0.200058 -0.24551 -0.538 
0.200718 -0.244597 -0.536 
0.201369 -0.243685 -0.534 
0.202008 -0.242772 -0.532 
0.202638 -0.241859 -0.53 
0.203641 -0.241403 -0.529 
0.20464 -0.240946 -0.528 
0.205243 -0.240034 -0.526 
0.206228 -0.239577 -0.525 
0.206813 -0.238665 -0.523 
0.207785 -0.238208 -0.522 
0.208352 -0.237296 -0.52 
0.208908 -0.236383 -0.518 
0.209453 -0.23547 -0.516 
0.210397 -0.235014 -0.515 
0.210924 -0.234101 -0.513 
0.21144 -0.233189 -0.511 
0.211946 -0.232276 -0.509 
0.212442 -0.231363 -0.507 
0.212927 -0.230451 -0.505 
0.213402 -0.229538 -0.503 
0.214293 -0.229082 -0.502 
0.214749 -0.228169 -0.5 
0.215195 -0.227256 -0.498 
0.216065 -0.2268 -0.497 
0.216493 -0.225887 -0.495 
0.21691 -0.224975 -0.493 
0.217316 -0.224062 -0.491 
0.218158 -0.223606 -0.49 
0.218546 -0.222693 -0.488 
0.219374 -0.222237 -0.487 
0.219744 -0.221324 -0.485 
0.220559 -0.220868 -0.484 
0.221369 -0.220411 -0.483 
0.222173 -0.219955 -0.482 
0.222509 -0.219042 -0.48 
0.223301 -0.218586 -0.479 
0.224087 -0.21813 -0.478 
0.224868 -0.217673 -0.477 
0.225644 -0.217217 -0.476 
0.226414 -0.216761 -0.475 
0.22718 -0.216304 -0.474 
0.22794 -0.215848 -0.473 
0.228695 -0.215392 -0.472 
0.229444 -0.214935 -0.471 
0.230678 -0.214935 -0.471 
0.23142 -0.214479 -0.47 
0.232156 -0.214023 -0.469 
0.232888 -0.213566 -0.468 
-0.146333 -0.730661 -1.592 
-0.142162 -0.730661 -1.592 
-0.138337 -0.732497 -1.596 
-0.134576 -0.734792 -1.601 
-0.130706 -0.736628 -1.605 
-0.126501 -0.736628 -1.605 
-0.122296 -0.736628 -1.605 
-0.11809 -0.736628 -1.605 
-0.114169 -0.738464 -1.609 
-0.109953 -0.738464 -1.609 
0.194499 -0.260229 -0.567 
0.194948 -0.258852 -0.564 
0.196078 -0.258393 -0.563 
0.197614 -0.256558 -0.559 
0.19801 -0.255181 -0.556 
0.198032 -0.253345 -0.552 
0.198033 -0.251509 -0.548 
0.198377 -0.250132 -0.545 
0.198705 -0.248755 -0.542 
0.199387 -0.247837 -0.54 
0.200058 -0.24692 -0.538 
0.200344 -0.245543 -0.535 
0.200992 -0.244625 -0.533 
0.201629 -0.243707 -0.531 
0.202638 -0.243248 -0.53 
0.203256 -0.24233 -0.528 
0.20464 -0.24233 -0.528 
0.205243 -0.241412 -0.526 
0.206228 -0.240953 -0.525 
0.206813 -0.240035 -0.523 
0.207785 -0.239576 -0.522 
0.208752 -0.239117 -0.521 
0.209311 -0.238199 -0.519 
0.209859 -0.237281 -0.517 
0.210397 -0.236363 -0.515 
0.210924 -0.235446 -0.513 
0.211854 -0.234987 -0.512 
0.212363 -0.234069 -0.51 
0.212861 -0.233151 -0.508 
0.213349 -0.232233 -0.506 
0.21425 -0.231774 -0.505 
0.214293 -0.230397 -0.502 
0.215179 -0.229938 -0.501 
0.215627 -0.22902 -0.499 
0.216065 -0.228102 -0.497 
0.216493 -0.227184 -0.495 
0.21691 -0.226266 -0.493 
0.217759 -0.225807 -0.492 
0.218158 -0.22489 -0.49 
0.218994 -0.224431 -0.489 
0.219374 -0.223513 -0.487 
0.220197 -0.223054 -0.486 
0.221015 -0.222595 -0.485 
0.221369 -0.221677 -0.483 
0.222173 -0.221218 -0.482 
0.222973 -0.220759 -0.481 
0.223767 -0.2203 -0.48 
0.224556 -0.219841 -0.479 
0.225339 -0.219382 -0.478 
0.225644 -0.218464 -0.476 
0.226891 -0.218464 -0.476 
0.22718 -0.217546 -0.474 
0.22794 -0.217087 -0.473 
0.229179 -0.217087 -0.473 
0.229931 -0.216628 -0.472 
0.230678 -0.216169 -0.471 
0.23142 -0.21571 -0.47 
0.232156 -0.215251 -0.469 
0.232888 -0.214792 -0.468 
0.233614 -0.214333 -0.467 
-0.142162 -0.734833 -1.592 
-0.13799 -0.734833 -1.592 
-0.134576 -0.738987 -1.601 
-0.130706 -0.740833 -1.605 
-0.126501 -0.740833 -1.605 
-0.122296 -0.740833 -1.605 
-0.11809 -0.740833 -1.605 
-0.114169 -0.74268 -1.609 
0.194156 -0.261253 -0.566 
0.194948 -0.26033 -0.564 
0.196078 -0.259869 -0.563 
0.197202 -0.259407 -0.562 
0.197614 -0.258022 -0.559 
0.19801 -0.256638 -0.556 
0.198032 -0.254791 -0.552 
0.197671 -0.252483 -0.547 
0.198013 -0.251099 -0.544 
0.198705 -0.250176 -0.542 
0.199017 -0.248791 -0.539 
0.199314 -0.247406 -0.536 
0.199969 -0.246483 -0.534 
0.200992 -0.246021 -0.533 
0.201249 -0.244637 -0.53 
0.202255 -0.244175 -0.529 
0.203256 -0.243713 -0.528 
0.204252 -0.243252 -0.527 
0.205243 -0.24279 -0.526 
0.206228 -0.242329 -0.525 
0.207209 -0.241867 -0.524 
0.208183 -0.241405 -0.523 
0.208752 -0.240482 -0.521 
0.209714 -0.240021 -0.52 
0.210265 -0.239098 -0.518 
0.210805 -0.238174 -0.516 
0.211335 -0.237251 -0.514 
0.211854 -0.236328 -0.512 
0.212363 -0.235405 -0.51 
0.21328 -0.234943 -0.509 
0.21377 -0.23402 -0.507 
0.21425 -0.233097 -0.505 
0.21472 -0.232174 -0.503 
0.215179 -0.231251 -0.501 
0.215627 -0.230328 -0.499 
0.216065 -0.229404 -0.497 
0.21693 -0.228943 -0.496 
0.21691 -0.227558 -0.493 
0.217759 -0.227097 -0.492 
0.218158 -0.226173 -0.49 
0.218994 -0.225712 -0.489 
0.219824 -0.22525 -0.488 
0.22065 -0.224789 -0.487 
0.221015 -0.223866 -0.485 
0.221827 -0.223404 -0.484 
0.222173 -0.222481 -0.482 
0.222973 -0.222019 -0.481 
0.223767 -0.221558 -0.48 
0.224556 -0.221096 -0.479 
0.225339 -0.220634 -0.478 
0.226118 -0.220173 -0.477 
0.226891 -0.219711 -0.476 
0.227659 -0.21925 -0.475 
0.228422 -0.218788 -0.474 
0.229179 -0.218327 -0.473 
0.230418 -0.218327 -0.473 
0.231168 -0.217865 -0.472 
0.231912 -0.217403 -0.471 
0.232651 -0.216942 -0.47 
0.233385 -0.21648 -0.469 
0.234114 -0.216019 -0.468 
0.234837 -0.215557 -0.467 
0.236061 -0.215557 -0.467 
0.236268 -0.214634 -0.465 
0.237487 -0.214634 -0.465 
-0.13799 -0.739004 -1.592 
-0.134576 -0.743182 -1.601 
-0.130706 -0.745039 -1.605 
-0.118384 -0.746896 -1.609 
0.19347 -0.261808 -0.564 
0.194602 -0.261344 -0.563 
0.195729 -0.26088 -0.562 
0.1965 -0.259951 -0.56 
0.19726 -0.259023 -0.558 
0.197654 -0.25763 -0.555 
0.197673 -0.255773 -0.551 
0.19731 -0.253452 -0.546 
0.197649 -0.25206 -0.543 
0.197972 -0.250667 -0.54 
0.198279 -0.249275 -0.537 
0.198942 -0.248346 -0.535 
0.199595 -0.247418 -0.533 
0.200237 -0.246489 -0.531 
0.200869 -0.245561 -0.529 
0.201873 -0.245097 -0.528 
0.203256 -0.245097 -0.528 
0.204252 -0.244633 -0.527 
0.205243 -0.244168 -0.526 
0.206228 -0.243704 -0.525 
0.207209 -0.24324 -0.524 
0.208183 -0.242776 -0.523 
0.209153 -0.242312 -0.522 
0.209714 -0.241383 -0.52 
0.210265 -0.240455 -0.518 
0.210805 -0.239526 -0.516 
0.211335 -0.238598 -0.514 
0.212268 -0.238134 -0.513 
0.212779 -0.237205 -0.511 
0.21328 -0.236277 -0.509 
0.21377 -0.235349 -0.507 
0.21425 -0.23442 -0.505 
0.21472 -0.233492 -0.503 
0.215179 -0.232563 -0.501 
0.215627 -0.231635 -0.499 
0.216065 -0.230707 -0.497 
0.216493 -0.229778 -0.495 
0.21735 -0.229314 -0.494 
0.217759 -0.228386 -0.492 
0.218158 -0.227457 -0.49 
0.218994 -0.226993 -0.489 
0.219824 -0.226529 -0.488 
0.22065 -0.226065 -0.487 
0.221015 -0.225136 -0.485 
0.221827 -0.224672 -0.484 
0.222634 -0.224208 -0.483 
0.223436 -0.223744 -0.482 
0.223767 -0.222815 -0.48 
0.225025 -0.222815 -0.48 
0.225811 -0.222351 -0.479 
0.226592 -0.221887 -0.478 
0.227368 -0.221423 -0.477 
0.228138 -0.220959 -0.476 
0.228904 -0.220494 -0.475 
0.229664 -0.22003 -0.474 
0.230418 -0.219566 -0.473 
0.231658 -0.219566 -0.473 
0.232405 -0.219102 -0.472 
0.233146 -0.218638 -0.471 
0.233883 -0.218173 -0.47 
0.234614 -0.217709 -0.469 
0.23534 -0.217245 -0.468 
0.236061 -0.216781 -0.467 
0.237285 -0.216781 -0.467 
0.237997 -0.216317 -0.466 
0.238705 -0.215852 -0.465 
0.239923 -0.215852 -0.465 
0.194257 -0.262352 -0.562 
0.195381 -0.261885 -0.561 
0.1965 -0.261418 -0.56 
0.19726 -0.260485 -0.558 
0.197654 -0.259084 -0.555 
0.19731 -0.254883 -0.546 
0.197649 -0.253483 -0.543 
0.197605 -0.251615 -0.539 
0.198279 -0.250682 -0.537 
0.19857 -0.249281 -0.534 
0.199221 -0.248348 -0.532 
0.19986 -0.247414 -0.53 
0.20049 -0.24648 -0.528 
0.201491 -0.246013 -0.527 
0.202871 -0.246013 -0.527 
0.203865 -0.245547 -0.526 
0.205243 -0.245547 -0.526 
0.206228 -0.24508 -0.525 
0.207209 -0.244613 -0.524 
0.208183 -0.244146 -0.523 
0.209153 -0.243679 -0.522 
0.209714 -0.242746 -0.52 
0.210265 -0.241812 -0.518 
0.210805 -0.240878 -0.516 
0.211335 -0.239945 -0.514 
0.212268 -0.239478 -0.513 
0.212779 -0.238544 -0.511 
0.213699 -0.238078 -0.51 
0.214192 -0.237144 -0.508 
0.214675 -0.23621 -0.506 
0.215147 -0.235277 -0.504 
0.215179 -0.233876 -0.501 
0.215627 -0.232943 -0.499 
0.216065 -0.232009 -0.497 
0.216493 -0.231075 -0.495 
0.21735 -0.230608 -0.494 
0.217759 -0.229675 -0.492 
0.218603 -0.229208 -0.491 
0.219441 -0.228741 -0.49 
0.219824 -0.227808 -0.488 
0.22065 -0.227341 -0.487 
0.22147 -0.226874 -0.486 
0.222285 -0.226407 -0.485 
0.222634 -0.225473 -0.483 
0.223436 -0.225007 -0.482 
0.224233 -0.22454 -0.481 
0.225025 -0.224073 -0.48 
0.225811 -0.223606 -0.479 
0.226592 -0.223139 -0.478 
0.227368 -0.222673 -0.477 
0.228138 -0.222206 -0.476 
0.228904 -0.221739 -0.475 
0.229664 -0.221272 -0.474 
0.230906 -0.221272 -0.474 
0.231658 -0.220805 -0.473 
0.232897 -0.220805 -0.473 
0.233641 -0.220338 -0.472 
0.234381 -0.219872 -0.471 
0.235114 -0.219405 -0.47 
0.235843 -0.218938 -0.469 
0.236566 -0.218471 -0.468 
0.237285 -0.218004 -0.467 
0.238508 -0.218004 -0.467 
0.239218 -0.217538 -0.466 
0.239923 -0.217071 -0.465 
0.191652 -0.264294 -0.563 
0.193127 -0.264294 -0.563 
0.194257 -0.263825 -0.562 
0.195381 -0.263355 -0.561 
0.196149 -0.262416 -0.559 
0.19726 -0.261947 -0.558 
0.197654 -0.260539 -0.555 
0.197673 -0.258661 -0.551 
0.19731 -0.256314 -0.546 
0.197285 -0.254436 -0.542 
0.197605 -0.253028 -0.539 
0.19791 -0.251619 -0.536 
0.198198 -0.250211 -0.533 
0.198846 -0.249272 -0.531 
0.199483 -0.248333 -0.529 
0.20049 -0.247864 -0.528 
0.201108 -0.246925 -0.526 
0.202487 -0.246925 -0.526 
0.203865 -0.246925 -0.526 
0.204853 -0.246455 -0.525 
0.206228 -0.246455 -0.525 
0.207209 -0.245986 -0.524 
0.208183 -0.245517 -0.523 
0.209153 -0.245047 -0.522 
0.210118 -0.244578 -0.521 
0.210671 -0.243639 -0.519 
0.211214 -0.2427 -0.517 
0.211746 -0.241761 -0.515 
0.212268 -0.240822 -0.513 
0.213196 -0.240353 -0.512 
0.213699 -0.239414 -0.51 
0.214192 -0.238475 -0.508 
0.214675 -0.237536 -0.506 
0.215147 -0.236597 -0.504 
0.215179 -0.235189 -0.501 
0.215627 -0.23425 -0.499 
0.216065 -0.233311 -0.497 
0.216493 -0.232372 -0.495 
0.21691 -0.231433 -0.493 
0.217759 -0.230964 -0.492 
0.218603 -0.230495 -0.491 
0.219441 -0.230025 -0.49 
0.219824 -0.229086 -0.488 
0.22065 -0.228617 -0.487 
0.22147 -0.228147 -0.486 
0.222285 -0.227678 -0.485 
